ply
format ascii 1.0
element vertex 718
property float x
property float y
property float z
property uchar red
property uchar green
property uchar blue
end_header
-5.61423 -1.29697 -20.1994 0 255 0
-6.88718 1.20695 -18.712 0 255 0
-7.61471 3.45585 -17.5873 0 255 0
-8.92339 6.29038 -16.7 0 255 0
-5.06564 4.71813 -18.3658 0 255 0
-2.30683 -1.19225 -20.6196 0 255 0
-0.511102 -5.61581 -21.2283 0 255 0
-12.0634 -8.14617 -14.5584 0 255 0
-14.5791 -3.12785 -12.7902 0 255 0
-16.1979 1.28775 -12.0009 0 255 0
-10.8034 -9.66102 -14.7399 0 255 0
1.21837 -9.7195 4.74471 120 56 17
-0.952135 -9.91557 2.82269 10 61 38
1.22118 -9.47203 4.79047 126 49 27
0.897867 -9.59241 4.90986 22 71 88
0.306973 -9.91107 5.06233 16 58 40
1.18941 -9.33472 4.89941 166 152 16
0.622504 -9.65796 5.21049 186 186 187
1.38702 -9.12185 5.06732 6 57 78
1.14825 -9.07512 5.03258 150 152 62
1.13702 -9.07749 5.03197 150 152 62
0.511755 -9.25735 5.15881 12 33 21
-3.64633 -9.68217 1.02392 162 134 76
1.5069 -8.62706 5.42763 180 180 176
-4.06305 -9.39893 0.86999 167 136 92
0.936868 -8.8164 5.42869 12 62 109
-0.166317 -9.04903 4.85672 12 34 22
-4.12451 -9.34787 0.94816 166 138 104
-4.13163 -9.30134 0.888129 166 138 104
-4.34967 -9.20221 0.900185 170 142 111
-4.35321 -9.19395 0.896272 170 142 111
-4.05447 -9.01669 1.10861 10 56 36
-4.07576 -9.0022 1.12425 11 55 35
0.075569 -8.486 5.78194 190 186 191
-4.39669 -8.88255 1.1016 106 58 62
-4.38842 -8.77033 1.21786 188 160 141
-4.38056 -8.76717 1.20774 188 160 141
-1.93574 -8.09274 4.47633 36 108 136
-3.45347 -8.48733 3.49169 57 97 79
-2.76545 -8.17359 4.86629 13 11 13
-2.78153 -8.03989 4.3682 13 11 13
-4.8426 -7.88366 1.58448 22 56 40
-5.01532 -7.8203 1.52488 154 136 100
-2.26808 -7.56533 5.75137 138 28 34
-2.74834 -7.68496 5.51688 236 144 145
-4.72787 -7.53265 2.16027 38 82 73
-5.52738 -7.71314 1.32242 184 142 126
-5.28289 -7.46386 1.47512 164 137 109
-4.10304 -7.70144 4.6078 174 166 170
-5.06237 -7.2569 1.86441 154 159 148
-5.19882 -7.12343 1.90444 168 168 150
-5.07793 -7.27094 3.11831 36 34 38
-7.26187 -7.69584 1.22748 22 22 22
-7.01272 -7.45372 1.80671 117 118 127
-0.979658 -3.35183 4.80532 56 34 15
-1.37549 -3.29987 5.15006 44 25 12
3.2428 -0.329886 2.45515 96 82 78
-7.18153 -5.99689 2.62887 35 28 34
2.22922 -0.630416 1.23781 185 158 116
2.23436 -0.627734 1.24691 185 158 116
0.431183 -1.62246 3.05234 70 45 17
-0.360467 -2.15367 3.96953 73 46 22
-0.191429 -2.03003 3.76029 77 49 24
-0.519164 -2.14554 4.07689 202 172 136
1.94429 -0.37823 1.39252 74 46 26
1.90884 -0.0755681 1.56969 149 134 121
-0.199803 -1.6742 3.66299 182 138 106
0.515311 -1.19187 2.90181 152 152 134
0.798815 -0.964106 2.6809 142 154 142
0.43312 -0.841104 2.93218 148 96 96
0.582229 -0.692966 2.75559 190 163 134
2.4806 0.352871 2.20886 87 76 68
0.45673 -0.687274 2.86446 138 106 84
-0.417348 -1.24186 3.81633 122 68 50
0.134574 -0.848339 3.21342 188 170 122
-0.234327 -1.0835 3.59673 118 72 44
-0.233792 -1.08452 3.59839 118 72 44
-1.53272 -2.08 6.01511 188 183 188
-0.0648121 -0.944099 3.40457 116 80 52
0.260467 -0.709984 3.07224 174 156 133
1.52341 0.123938 1.79867 65 37 24
-0.519733 -1.15101 3.9073 194 136 94
-0.52008 -1.15281 3.9047 194 136 94
0.47592 -0.400449 2.79738 171 141 92
-0.247661 -0.868903 3.54314 190 138 95
-3.7821 -3.30568 9.01699 103 72 33
0.154863 -0.518153 3.1281 195 182 139
2.3884 0.741959 2.40955 222 222 224
0.4789 -0.272245 2.81563 91 57 14
0.0113615 -0.54138 3.26625 148 112 68
0.00664504 -0.459473 3.28098 164 130 89
1.34528 0.339823 1.89496 64 36 17
0.346168 -0.235071 2.88281 184 168 128
1.55255 0.567764 2.18848 54 40 32
-0.181288 -0.501096 3.44913 146 94 66
0.0254304 -0.356973 3.22985 148 122 92
-0.0849157 -0.371444 3.32394 204 166 126
-0.616265 -0.671215 3.9133 214 180 138
-0.616265 -0.671215 3.9133 214 180 138
0.175647 -0.15344 3.03839 198 188 153
-4.2828 -2.92631 7.85769 87 56 20
-0.545895 -0.541595 3.81929 201 172 129
-0.228302 -0.189375 3.49264 186 174 126
-3.66045 -2.39387 7.1517 61 33 10
-0.227947 -0.14089 3.47695 185 172 124
-0.525023 -0.305075 3.73971 174 138 105
0.176181 0.213857 3.03411 122 89 37
-0.668423 -0.345074 3.88881 108 66 61
-0.128763 0.0746552 3.31978 162 121 84
1.33621 0.982985 1.77246 52 28 7
-0.292117 0.0485863 3.44836 187 170 131
1.37449 1.08062 1.71821 133 102 52
-0.841911 -0.226666 3.99008 213 200 173
0.112564 0.361199 3.04215 100 68 18
-0.241376 0.167863 3.39028 156 138 110
1.36416 1.18606 1.67595 102 68 16
0.38848 0.613326 2.7471 72 36 4
-1.00329 -0.228589 4.18798 124 76 70
-2.60195 -1.17109 5.92936 89 52 16
-4.24972 -2.17074 7.68581 187 132 95
-0.875014 -0.0709907 4.11821 212 196 172
-3.89903 -1.83926 7.24691 175 132 107
-4.11284 -1.88956 7.3777 150 91 72
0.658754 1.04528 2.38104 70 34 0
-3.09526 -1.19328 6.38498 92 56 21
-3.93806 -1.67509 7.27155 89 61 61
-3.40883 -1.35788 6.70756 176 150 123
-1.0081 0.0936907 4.13073 136 97 80
-2.97108 -1.07185 6.25305 80 46 12
-4.56093 -2.02867 7.94391 210 132 95
-3.21865 -1.14962 6.47783 194 147 110
-0.402411 0.559176 3.49169 128 103 82
-0.407137 0.559401 3.47503 128 103 82
-4.84653 -2.0672 8.18926 74 60 72
-2.69233 -0.772911 5.94577 108 75 33
-3.50856 -1.21846 6.76405 118 108 101
-2.29463 -0.428334 5.5189 88 54 20
0.995914 1.51388 1.96885 93 56 10
0.999003 1.51806 1.98505 93 56 10
-2.56029 -0.510707 5.73895 187 156 122
-1.04877 0.381888 4.14234 199 160 116
-3.80391 -1.12232 7.04027 104 60 43
-3.80289 -1.1219 7.04198 104 60 43
-0.490261 0.825779 3.50564 200 162 113
-0.332008 0.923058 3.34361 191 152 108
1.47478 1.97163 1.4302 150 119 56
0.696776 1.54159 2.27261 86 52 12
-0.774976 0.700759 3.80128 134 95 50
-2.27657 -0.148582 5.37538 190 155 110
-2.53683 -0.300407 5.70083 210 176 153
-2.53201 -0.199199 5.6232 164 114 82
-2.40177 -0.0903267 5.50434 168 114 82
-0.602335 0.994167 3.53589 144 105 66
-0.250894 1.20022 3.21418 199 168 132
1.08805 1.99209 1.73591 94 62 28
-1.63125 0.448194 4.68929 199 160 121
-0.371023 1.22691 3.31143 121 86 72
-3.10796 -0.294712 6.24829 200 167 131
-5.04672 -1.45882 7.65812 156 100 78
-1.97441 0.406799 5.04212 202 160 112
-4.45822 -0.959103 7.65084 179 134 98
-4.57822 -0.970188 7.69926 179 127 89
-3.84119 -0.557128 7.02752 214 191 162
0.430367 1.87977 2.4251 164 140 114
-0.964404 1.1403 3.90667 220 150 106
-1.35694 0.948278 4.27266 117 77 121
1.30584 2.44617 1.4444 163 132 94
-0.0535098 1.68618 2.93087 194 178 102
-3.72265 -0.387124 6.95785 209 188 160
-1.15975 1.10543 4.11754 211 180 198
-1.15991 1.10002 4.11409 211 180 198
-2.34852 0.353332 5.43116 154 111 71
-2.33181 0.342151 5.43948 154 111 71
0.970215 2.3109 1.82031 168 150 116
-3.25407 -0.0126666 6.32836 210 190 165
-1.25926 1.08957 4.17623 118 82 116
-2.90468 0.190699 5.96987 157 118 70
-0.849753 1.33047 3.77345 222 149 112
-2.1018 0.65712 5.04232 205 164 116
-1.11147 1.21432 4.04939 136 94 102
-3.59141 -0.110922 6.60419 214 178 154
1.15205 2.47751 1.62781 110 90 60
1.06119 2.4903 1.6933 158 140 106
-1.69929 0.995578 4.67227 202 188 181
-1.92171 0.886668 4.85531 112 80 74
-1.12277 1.36827 4.03734 210 188 178
0.858425 2.44252 1.87286 96 74 57
-1.38949 1.23243 4.30465 212 202 196
-2.27303 0.780139 5.24924 204 164 115
-1.06625 1.45166 3.95489 210 187 176
0.463583 2.27709 2.31145 90 74 58
-2.0951 0.908307 5.06337 132 96 72
0.131038 2.1154 2.66287 159 147 166
0.12987 2.11519 2.66256 159 147 166
-0.864802 1.61411 3.63613 128 79 90
-3.38714 0.250714 6.41698 186 152 120
-2.62327 0.673635 5.60191 192 156 108
-0.5909 1.78068 3.43283 190 130 84
-1.90554 1.07893 4.8224 142 114 103
0.948692 2.64947 1.77451 169 150 112
-5.3716 -0.722612 8.48784 184 114 113
1.16294 2.77931 1.61264 148 140 132
-3.8559 0.102989 6.87722 157 120 81
-3.36197 0.382014 6.39406 143 100 68
-4.59111 -0.249544 7.65398 168 138 135
-0.272968 2.05346 3.08234 187 168 110
-2.05466 1.10919 4.99402 200 168 138
-0.726853 1.83299 3.61996 114 78 100
-1.50745 1.43256 4.39405 149 122 106
-0.931346 1.74841 3.74858 204 182 174
0.164923 2.33512 2.58709 182 172 178
0.165101 2.33951 2.58966 182 172 178
-3.34338 0.492285 6.31416 205 172 145
0.346502 2.49251 2.38968 167 152 141
-0.662118 1.98111 3.45695 112 80 112
-2.19803 1.17141 4.99437 125 90 84
-1.39384 1.61647 4.23219 174 154 136
-5.43203 -0.511107 8.46507 72 42 40
-5.42931 -0.509337 8.51684 72 42 40
-2.4504 1.06338 5.38818 162 122 70
-5.64089 -0.634637 8.6563 158 110 91
-5.29441 -0.444799 8.38335 148 106 106
-4.98405 -0.259746 8.03243 85 46 42
-1.39845 1.6568 4.2583 150 128 112
-4.65363 -0.0332389 7.67732 119 79 60
-2.67179 1.01367 5.5887 163 118 78
0.577415 2.72467 2.12615 204 179 100
-0.946974 1.94248 3.76862 198 190 178
0.275021 2.58033 2.43231 116 100 108
-4.60222 0.150124 7.397 130 90 60
0.616078 2.79341 2.03392 133 110 56
-4.23561 0.266643 7.22079 144 117 93
-2.14979 1.36454 5.00797 114 86 90
-3.66456 0.568706 6.63814 144 99 72
-1.55954 1.6785 4.36694 212 206 194
-4.47229 0.19411 7.43258 167 116 96
-0.139365 2.43531 2.87762 197 172 171
0.833366 2.94683 1.82856 126 124 99
-5.29665 -0.233862 8.33416 195 101 96
-0.813493 2.11492 3.64172 200 177 152
0.293353 2.7015 2.40721 202 192 180
-0.602249 2.24475 3.37256 199 161 124
-0.602694 2.24619 3.37381 199 161 124
-2.65769 1.23478 5.4234 202 164 114
-0.520353 2.36827 3.23866 123 94 62
-0.309168 2.5024 3.01171 224 194 158
-1.44471 1.94059 4.29145 208 200 182
-0.0081517 2.69726 2.68724 122 94 84
0.263311 2.85183 2.42479 125 101 100
-0.642027 2.39233 3.37814 125 92 76
0.690568 3.08944 1.93957 182 170 130
-4.72306 0.332743 7.6801 164 144 140
-0.165467 2.66401 2.825 126 100 87
-4.95769 0.23202 7.91877 192 138 108
-4.95573 0.230448 7.92007 192 138 108
0.475102 2.99529 2.17569 108 92 64
-3.02757 1.22674 5.87375 150 100 64
-4.8761 0.304963 7.85744 128 82 65
0.53277 3.06548 2.10131 92 75 53
-1.75179 1.92863 4.58502 126 96 100
-5.60499 -0.00886721 8.56726 174 132 118
-4.27229 0.666464 7.12331 201 170 125
-1.48508 2.08613 4.26515 133 99 80
-1.31667 2.17793 4.07888 128 94 96
0.179467 2.93634 2.4718 211 176 122
0.716981 3.22871 1.89237 117 101 82
-0.888136 2.41207 3.61746 217 148 108
-0.105529 2.82746 2.78233 188 156 105
-0.102776 2.82609 2.79079 188 156 105
0.53411 3.14952 2.06084 192 174 144
-4.15586 0.812226 7.03753 200 164 122
-4.09267 0.978487 5.75744 204 159 119
-3.38783 1.27635 6.24601 200 170 129
-2.78071 1.60149 5.59785 202 166 119
-2.32097 1.86603 5.11701 206 172 127
-0.110096 2.99866 2.73708 118 98 62
0.132817 3.14036 2.54745 128 100 52
-5.51021 0.375559 8.46296 134 102 58
-4.40541 0.948775 7.34935 106 72 26
-5.56506 0.394558 8.70769 129 97 46
0.416111 3.34443 2.17533 122 106 74
-0.933004 2.71993 3.65222 144 109 60
-0.0338966 3.20469 2.66156 119 92 55
0.0360499 3.20649 2.57418 175 151 90
0.585276 3.48586 1.99482 186 174 174
-0.303117 3.06356 2.91743 114 99 62
-0.508748 2.9725 3.14782 220 193 148
-0.222709 3.1508 2.83268 148 136 95
-3.01051 1.89848 5.80324 84 54 20
-0.955665 2.88021 3.60005 209 170 124
-0.558484 3.0664 3.14427 146 116 68
-0.188101 3.25944 2.67814 177 164 145
-0.71253 3.04664 3.32561 182 166 88
-0.0400698 3.4241 2.58169 160 144 96
-0.540218 3.20086 3.13873 210 178 132
-0.238778 3.34014 2.79811 182 168 144
-2.12528 2.59481 4.76386 200 165 116
0.102104 3.66871 2.44023 105 83 49
-0.612977 3.34114 3.18665 126 100 60
-0.234259 3.5092 2.75473 105 80 52
0.650924 3.93767 1.84015 104 90 58
-2.03763 2.71598 4.66149 121 91 72
0.0121692 3.69758 2.50655 173 156 96
-5.29716 1.21967 8.12409 66 40 7
-1.44067 3.03261 4.02608 138 105 79
-1.34785 3.08137 3.88453 200 168 132
-1.34512 3.07995 3.9251 200 168 132
-1.56752 3.02543 4.15716 198 166 122
-3.59628 2.08647 6.13857 140 106 50
-1.79058 2.93827 4.41394 196 160 128
-1.39449 3.14961 4.0042 202 168 138
-4.43377 1.75261 7.18363 58 32 6
-0.338462 3.64986 2.85088 110 82 66
-0.331503 3.65068 2.85468 110 82 66
-6.46824 0.797077 9.33822 98 74 42
-4.075 1.94128 6.81754 38 24 10
-4.30524 1.8479 7.02973 58 36 17
-3.51401 2.22114 6.22454 130 101 50
-7.80014 0.106942 8.25787 128 119 112
0.214405 4.09352 2.24485 194 190 185
-1.97454 3.09564 4.49196 132 96 82
-3.7853 2.32724 6.45529 200 198 204
-0.858713 3.70079 3.40496 154 120 54
-2.00358 3.21703 4.56074 130 94 82
0.160625 4.28061 2.24639 136 113 104
0.48312 4.51646 1.94311 107 72 16
0.242925 4.44261 2.15399 182 156 128
-2.167 3.37474 4.68451 132 97 88
-1.15591 3.93556 3.65962 156 124 57
-0.0295005 4.49967 2.44382 76 42 4
-2.39055 3.61145 4.85007 128 92 81
-0.336894 4.43643 2.77319 152 120 52
-0.0958993 4.59576 2.40976 158 128 60
0.12651 4.70482 2.23042 97 62 11
-1.80657 3.89621 4.21696 220 159 146
-4.13689 3.02939 6.72004 58 33 16
-1.10084 4.36724 3.52035 84 51 8
-1.10389 4.36538 3.50544 84 51 8
-2.4931 3.89591 4.89043 148 120 88
-0.591487 4.72234 3.03681 66 39 18
-2.60911 3.91277 5.00569 197 166 140
-0.285947 4.90057 2.66654 150 118 54
-0.803268 4.69711 3.17911 140 106 54
-1.82051 4.29618 4.24328 198 172 150
-1.82524 4.30114 4.26459 198 172 150
-1.13646 4.60614 3.51302 106 72 16
-0.192532 5.0355 2.63055 150 119 52
-0.877203 4.76525 3.23191 147 112 49
-0.0831602 5.14149 2.4365 152 118 53
-3.80359 3.65188 6.23618 93 62 20
-2.74145 4.12321 5.11967 204 164 128
-1.88478 4.50744 4.2415 170 152 138
-2.14567 4.39449 4.46803 172 148 136
-4.5592 3.49143 7.02488 54 31 14
-2.51246 4.32416 4.87408 212 168 130
-2.04461 4.53876 4.43446 96 74 90
0.00487577 5.40052 2.29121 62 40 28
-0.945865 5.0248 3.30082 154 122 52
-2.07609 4.57146 4.38109 100 83 99
-4.58726 3.67394 7.00956 144 113 56
-2.20878 4.6159 4.52766 180 142 128
-0.808361 5.30797 3.33528 45 26 12
-2.26222 4.77719 4.51516 188 166 159
-2.14855 4.82718 4.46654 91 70 84
-0.940367 5.32096 3.23796 152 122 60
-0.866522 5.37049 3.10337 46 26 12
-2.36732 4.89646 4.62639 175 166 143
-2.19864 4.96013 4.45168 206 188 170
-4.5033 4.13206 6.84537 144 114 58
-2.78953 4.82196 5.04866 218 217 198
-2.29478 5.03069 4.5282 157 130 106
-1.05216 5.50405 3.38161 159 127 52
-4.26154 4.31262 6.60488 143 112 57
0.0223641 6.30918 4.31158 91 77 62
-0.822056 5.67935 3.47481 52 31 17
-2.42228 5.0305 4.66767 186 180 167
-2.42038 5.03293 4.68948 186 180 167
-2.54176 4.99108 4.78683 126 125 126
-3.95417 4.55298 6.3097 134 106 51
-1.91302 5.34095 4.28779 121 90 48
-2.18538 5.23932 4.43042 128 100 92
-2.46869 5.16326 4.68128 131 106 88
-2.332 5.21863 4.55655 200 172 142
-1.60657 5.52312 3.85377 70 38 10
0.0544481 6.6019 4.43332 93 78 68
-2.10012 5.36815 4.30795 178 155 128
-3.84822 4.75607 6.0853 43 30 22
-3.70996 4.84088 5.93081 62 42 20
-3.52042 5.00474 5.79912 84 60 38
-1.09596 5.92389 3.33226 147 115 45
-0.105336 6.8002 4.57391 97 82 70
-1.09787 5.99346 2.87746 74 52 34
-3.07294 5.33322 5.29174 84 60 36
-0.637975 6.42514 3.96977 120 104 88
-1.52424 5.88973 3.74986 88 54 9
-2.90351 5.44996 5.09917 75 52 30
-1.91737 5.85247 4.07044 128 96 44
-2.67238 5.61781 4.84088 76 54 34
-2.56438 5.72975 4.74169 60 38 18
-2.4091 5.83837 4.54834 74 58 41
-1.03432 6.38016 3.27639 81 58 36
-1.2958 6.36536 3.4536 98 64 20
-1.29909 6.36095 3.42075 98 64 20
-1.86264 6.23416 3.94362 52 35 21
-0.995668 6.56226 3.22285 86 74 64
-1.39397 6.46327 3.46932 124 94 48
-1.43088 6.52385 3.55649 111 84 46
-1.28412 6.57783 3.23925 138 110 65
-2.97256 -0.925887 6.22062 181 142 104
-5.53961 -2.12005 8.87352 190 181 182
-3.816 1.00783 6.68369 198 161 116
-0.783268 4.9303 3.16095 45 24 12
-0.872389 0.394513 3.95948 170 126 110
-3.83979 -7.95475 3.08155 114 115 118
-0.398885 -0.683043 3.73476 164 98 76
-2.0509 -1.5839 5.48109 120 92 51
-4.47418 -9.97994 0.691364 8 46 30
-4.40459 -8.99117 0.875682 102 67 66
-4.7913 -8.87239 0.971502 159 146 140
-4.18267 -8.70417 1.30864 176 152 126
-4.95289 -7.84012 1.53043 151 149 127
-5.36577 -7.34993 1.47325 92 60 48
-6.81419 -7.66864 1.59215 15 15 16
-6.43943 -5.90499 2.48373 138 30 36
-6.43943 -5.90499 2.48373 138 30 36
-6.96192 -5.66864 2.59145 176 162 162
-0.382443 -0.306718 3.58691 102 72 48
-3.75591 -1.86192 7.11855 82 54 32
-5.17094 -2.56467 8.66759 60 40 20
-4.1187 -1.44305 7.39462 194 122 108
-5.06991 -1.75969 8.28609 158 100 78
-4.8439 -1.42752 8.12411 88 46 38
-0.414583 1.20843 3.40355 110 78 50
-4.11421 -0.404898 7.23253 146 100 66
-4.46125 -0.408896 7.53463 133 76 58
-0.177884 2.27177 2.95966 186 150 116
-0.437839 2.21407 3.19413 113 82 66
-2.75166 1.46544 5.52977 201 162 112
-1.22871 2.48266 3.97712 214 134 98
-0.150416 3.15827 2.76429 98 87 51
-0.355881 3.53993 2.95831 177 158 138
-6.46936 0.795728 9.35496 100 76 41
-1.87766 3.09979 4.337 120 82 65
-2.67435 4.83606 4.96008 138 134 125
1.19311 -9.71705 4.66966 104 54 6
0.374016 -8.5442 5.69632 16 64 40
3.50711 -0.51976 2.23002 226 226 228
-1.34668 -0.522921 4.63937 54 25 3
-3.49966 -1.06339 6.76993 171 133 94
-0.246889 1.19905 3.22102 188 155 118
-0.251813 1.19909 3.21968 188 155 118
-4.10446 -1.02457 7.2911 102 77 56
-3.18664 0.106712 6.23456 142 98 62
-1.92797 0.886173 4.89677 100 66 55
-0.183811 2.10223 3.03603 134 108 64
-5.4223 -0.39302 8.42626 62 34 34
0.0237441 2.83274 2.59762 194 163 118
-1.58899 2.15932 4.42903 186 134 120
-0.223128 3.50748 2.77162 96 70 47
0.589702 4.08459 1.93525 89 73 55
-1.56138 3.02853 4.16705 184 147 106
-0.0578137 3.92639 2.51452 168 142 116
0.117287 4.70464 2.2182 84 52 10
-1.81866 4.04138 4.24548 126 69 60
-1.82561 4.29106 4.20598 187 160 136
-0.653566 4.80651 3.02115 104 88 70
-3.1026 4.37745 5.41092 97 61 48
0.217474 6.5393 4.49196 214 213 214
0.17993 6.54384 4.46927 214 212 212
-3.99712 3.47428 -9.21913 218 218 218
-0.52584 2.37438 3.24179 118 87 54
-4.30951 0.726762 7.21169 204 174 132
-0.561484 3.54365 3.11302 168 132 104
-2.16267 2.84288 4.77223 119 86 62
0.367705 4.44364 2.02238 154 138 138
-1.80799 3.89553 4.21514 218 156 141
-1.72542 4.56826 4.08152 105 74 28
0.317552 5.48921 3.7038 52 33 22
-1.01005 6.23617 3.37283 67 42 23
-5.58379 -7.53623 1.26183 117 48 52
-0.0698226 -0.60154 3.34897 198 162 120
-0.0476879 -0.574619 3.4017 198 162 120
0.246117 -0.0277716 2.99207 194 180 143
0.696101 1.54596 2.27879 86 51 12
0.555419 1.47461 2.37989 80 46 9
1.22973 2.065 1.58568 98 66 29
0.643331 3.14285 1.30987 153 137 103
-1.81453 3.89066 4.18963 220 158 144
-1.24903 4.55698 3.63485 103 68 20
-1.02527 6.12611 3.26231 78 52 28
1.93589 -0.469988 1.40952 84 52 22
0.033451 -1.75515 3.52674 142 107 87
-0.697305 -0.770336 4.04937 184 131 92
-4.26752 1.99901 6.91542 192 188 184
-4.80524 3.8232 6.80244 71 49 24
-1.31543 6.3347 3.37418 114 83 40
0.534572 -1.0615 2.87868 108 92 88
0.293734 -0.983562 3.07317 130 116 91
-0.337899 -1.34427 3.75503 182 134 96
0.357036 -0.810279 2.98884 116 94 102
1.40993 0.156251 1.83578 124 89 48
-0.297567 -0.974143 3.67114 187 136 90
-3.42405 -3.0447 7.06609 41 26 16
1.0371 0.701388 1.81277 66 36 11
-3.40383 -2.27601 6.91 70 37 8
-2.64691 -1.49421 6.03867 88 52 17
-5.47112 -0.645345 8.56021 64 36 34
0.768568 2.96978 1.89858 166 154 134
-5.66983 0.834413 8.52731 90 59 15
-4.96839 1.60769 7.66611 186 180 170
-2.57099 3.78925 5.00149 168 146 114
-4.15324 4.41255 6.4984 146 117 54
1.64475 -1.45732 2.11589 112 84 50
0.92125 -1.91699 2.65854 110 82 44
-0.34149 -1.34123 3.73011 181 133 98
-4.82955 -1.16188 -4.08741 142 136 139
-3.86497 -1.24751 7.05266 192 146 103
1.09491 1.89049 1.83493 142 109 52
-2.1966 0.601778 5.21523 163 121 66
0.217047 2.23906 2.57951 117 94 84
-5.42469 -0.395487 8.41359 62 34 37
-1.13574 4.60655 3.51457 110 72 14
-2.06468 6.08514 4.09533 71 45 16
-0.900354 -0.718795 4.24624 98 58 45
-0.0769424 1.52828 2.99711 110 74 54
-2.98167 -0.140316 6.13156 146 103 66
0.754733 2.12293 2.05935 78 56 36
0.125598 1.79403 2.72159 104 75 86
-0.320789 1.52967 3.233 196 154 104
-0.710719 1.38619 3.68299 209 138 94
-1.36463 1.75888 4.19999 206 196 178
0.0335184 2.83425 2.62 202 173 124
-1.32639 5.03791 3.64518 110 74 19
-1.02649 5.18574 3.34021 100 64 12
0.253442 0.879588 2.75575 104 71 32
1.70588 2.08329 1.17797 72 42 10
-3.35343 -1.35255 6.45617 78 47 22
-2.79181 -0.737495 6.00506 158 118 79
1.50486 2.37362 1.23965 66 40 17
-0.00161187 1.80577 2.84066 112 79 60
1.46309 2.90742 1.2506 76 46 10
-0.152227 2.10463 2.93094 178 144 116
0.906903 2.81425 1.81229 162 152 150
-1.50942 1.43369 4.39077 126 95 79
-1.64809 1.37717 4.53003 186 164 148
-1.36233 1.75186 4.19967 199 182 162
-0.603228 2.24195 3.37431 172 132 94
1.11006 3.37778 1.51494 73 46 29
1.11006 3.37778 1.51494 73 46 29
-2.07125 1.42721 4.88546 102 79 64
-0.22452 3.15149 2.82861 127 115 82
-2.60758 1.69562 5.40093 180 136 84
0.597202 3.8118 1.88775 168 164 92
-3.34396 1.72751 6.16225 78 45 10
-2.12364 2.59529 4.77483 181 141 96
-7.79808 0.093864 8.35136 146 138 132
-6.5863 0.847465 9.47175 188 180 177
-2.07716 3.84479 4.66149 164 122 100
-2.28774 3.83557 4.73009 167 138 117
-0.383508 4.90457 2.88687 42 27 18
-3.19913 3.66595 5.63914 94 60 29
-2.14531 4.25273 4.51249 135 109 88
0.280597 5.2868 4.14085 102 90 85
-2.20571 4.51817 4.56891 120 80 68
-2.38974 4.90156 4.6104 154 144 121
-2.04218 5.12367 4.29431 188 168 140
-1.86416 5.70594 4.09245 72 42 12
-4.81085 -2.47212 8.24657 160 116 90
-4.9735 -2.48029 8.49418 96 61 24
-2.89912 -0.98794 6.55639 170 130 90
-3.67276 -1.28741 6.92653 84 44 32
-3.67251 -1.28509 6.93888 84 44 32
-1.45297 0.259841 4.49521 86 52 20
-4.8339 -1.41773 8.07164 90 46 35
-3.05839 0.0557116 6.14475 193 168 138
-1.24924 1.2844 4.18945 136 107 92
-1.17884 1.91601 3.97533 190 170 152
1.10753 3.37893 1.50645 71 43 22
1.0673 3.73191 1.49603 76 44 15
-4.87316 0.313039 7.79846 132 88 70
-0.935062 3.54371 3.44708 76 44 10
-0.92125 3.54235 3.51578 76 44 10
-1.65968 3.43598 4.19596 222 196 182
-1.07443 3.7675 3.58618 68 36 8
-1.07945 3.76948 3.57392 68 36 8
-0.709645 4.70564 3.05345 58 37 22
-0.709645 4.70564 3.05345 58 37 22
-2.72333 3.95361 5.11043 122 76 64
-0.847177 5.23717 3.1241 41 22 8
-0.129074 6.81987 4.38739 91 78 68
1.55139 2.36673 1.32493 74 44 14
1.37995 2.58636 1.39858 154 124 93
-1.08221 2.96641 3.68829 140 109 86
0.573442 4.68555 1.86013 103 69 20
-0.163217 5.72125 2.99658 88 75 64
-3.39656 0.618878 6.3487 162 116 76
-2.71878 3.95273 5.11566 127 84 70
-0.413951 1.832 3.23856 174 136 88
-0.415166 1.82795 3.23277 174 136 88
0.17167 2.6217 2.53614 112 85 81
-0.153122 3.15559 2.75932 80 72 40
-4.94637 1.13487 7.78062 101 68 21
-0.171935 0.68298 3.25306 111 80 38
0.531502 1.33155 2.46025 88 54 13
0.531502 1.33155 2.46025 88 54 13
-1.82044 3.65992 4.32377 180 128 118
-1.82018 3.65862 4.32652 180 128 118
-2.83701 0.33619 5.87346 130 88 42
0.930188 2.79741 1.86714 164 152 140
0.517988 2.80354 2.19433 118 94 58
-0.468003 2.45934 3.20051 158 136 76
-1.21471 4.22054 3.67846 126 92 36
-2.18128 5.424 4.35212 115 86 69
-1.64838 1.37754 4.52444 198 180 168
-4.19653 -9.10226 0.880751 115 60 41
-5.1549 -7.33573 1.35627 125 104 66
-4.92796 -7.61707 2.79939 23 34 28
-5.25942 -7.57283 1.40463 78 58 36
-4.98193 -7.29998 1.4768 104 92 47
-4.55172 -4.31167 8.30565 180 174 174
-4.07652 -9.21217 0.98913 114 70 46
-4.62946 -8.80159 0.673202 165 157 148
-5.18529 -7.09702 1.83809 174 173 157
-4.09808 -9.44509 0.842286 154 76 48
-0.380668 -0.308661 3.58656 118 87 64
-0.0349817 2.56553 2.72659 114 98 142
-0.585429 -2.21458 4.1435 100 68 30
1.4897 -9.36381 4.962 60 53 32
0.0469958 2.83864 2.60984 202 172 124
-1.80366 3.8966 4.21943 208 142 129
-1.70572 -1.1752 5.0799 76 40 6
-4.05291 -2.72771 7.65124 50 24 2
-1.32608 -0.290426 4.58837 92 59 11
0.823248 1.39069 2.17591 113 75 12
-0.583901 0.71604 3.62633 176 136 84
-3.88166 -1.35399 7.16318 150 105 60
-3.69197 -1.07097 6.9358 176 144 99
-4.15745 -1.08396 7.37429 149 122 102
-3.67551 -0.427204 7.02303 194 175 142
0.4905 2.38023 2.14663 88 72 44
-0.213403 2.39952 2.9237 149 110 80
-1.29263 1.83913 4.03336 198 184 159
-4.73022 -0.219939 7.74521 90 70 71
-4.74939 0.0293993 7.76669 162 116 106
-4.64148 0.0964147 7.612 162 124 102
-2.53386 1.47632 4.63599 180 146 96
-3.25728 1.15387 6.10287 172 159 152
-3.03351 1.4274 5.8504 177 142 90
-5.46004 -0.0460793 8.42618 84 38 33
-0.152834 3.56284 2.61154 148 130 68
-0.714333 3.41757 3.16189 178 140 90
-1.9244 2.80383 4.46971 157 126 78
-3.87215 1.993 6.57093 138 108 48
-2.97448 3.28144 5.48011 40 22 6
-2.57981 3.78156 4.98869 164 142 108
1.34597 -9.43929 4.78225 122 58 53
0.290153 -1.12633 3.10778 168 154 113
-0.26256 -0.603294 3.53596 134 65 42
0.648784 0.0759744 2.61953 140 103 38
-0.324448 0.19216 3.47979 168 156 116
-0.422145 0.170037 3.55608 116 106 67
0.388063 1.07144 2.63913 98 60 10
0.472212 1.38445 2.50464 136 102 44
-3.98571 -0.849364 7.17459 168 128 83
-3.61687 -0.324418 6.70685 188 161 132
-4.47224 -0.000410906 7.53939 166 126 79
-4.64064 0.0922966 7.61261 148 108 86
-3.3093 1.05118 6.16349 112 89 62
-4.54289 0.329165 7.49145 158 100 84
-0.402405 4.894 2.84631 41 25 16
-2.14522 4.82553 4.46245 69 50 63
-1.59013 5.92482 3.84643 154 120 49
1.15751 -1.7671 2.52819 105 74 38
2.13847 -0.739858 1.81371 112 74 28
2.13847 -0.739858 1.81371 112 74 28
0.553216 0.174706 1.08013 62 36 21
1.80835 0.641119 1.96764 222 227 235
1.6184 1.17047 1.57556 138 103 48
-0.739609 -0.344005 3.94083 88 50 47
0.156638 0.389833 3.03201 78 42 6
-2.75068 -1.01531 5.98065 74 42 10
-3.96979 -1.91747 7.37643 150 98 67
-2.4825 -0.58078 5.6868 90 58 25
-3.93515 -1.5349 7.1739 78 46 36
-1.27269 0.423314 4.44634 89 60 34
-1.8361 0.291094 4.86891 117 70 50
-1.56763 0.573855 4.54492 116 73 34
-2.79863 -0.230585 5.81984 181 146 112
-0.409072 1.59907 3.33599 132 89 44
-4.25099 -0.989414 7.33484 150 113 78
-0.120318 2.30007 2.93061 187 152 130
-0.766449 1.87327 3.63811 100 64 68
-2.83032 1.14179 5.72372 172 132 83
-4.80009 0.0291336 7.66887 147 100 90
-4.59699 0.167009 7.4948 128 102 99
-5.55951 -0.32756 8.47133 51 27 26
-2.52588 1.84632 5.24773 176 124 106
-2.51637 1.84877 5.25715 176 124 106
-2.5906 1.84183 5.31667 108 63 42
-4.631 0.491241 7.46847 168 92 78
-0.799497 3.1499 3.49883 114 78 48
-3.48723 1.33132 6.27504 104 72 44
-1.15104 2.96433 3.81647 166 132 98
-4.33361 0.820566 7.12646 108 74 48
-2.3414 2.31801 5.04116 90 57 22
-1.39412 3.15237 4.00833 181 144 106
-4.07145 1.42174 6.83871 64 34 2
-5.18485 1.31546 7.85105 67 39 6
-0.563425 4.73222 3.04688 63 39 21
-0.961968 5.54106 3.38698 153 119 40
-4.00336 3.99 6.3106 74 43 12
-3.79827 4.13889 6.12696 83 51 10
-1.67506 5.75637 3.62152 132 96 32
-3.75219 4.73689 5.97735 116 84 40
-1.02749 6.48279 3.17619 210 210 212
2.57591 -0.990745 1.37095 92 72 54
0.531753 -0.731363 2.81319 183 162 142
0.595738 1.10113 2.46159 154 117 52
