ply
format ascii 1.0
element vertex 682
property float x
property float y
property float z
property uchar red
property uchar green
property uchar blue
end_header
-0 -0 -0 0 255 0
-0.598249 -0.485563 0.650019 0 255 0
-0.48202 -0.682558 0.685665 0 255 0
-0.247319 -0.801044 0.648196 0 255 0
-0.155875 -0.859728 0.71129 0 255 0
-0.168289 -0.697788 0.807103 0 255 0
-0.259073 -0.298173 0.392359 0 255 0
-0.178189 -0.844508 0.754864 0 255 0
-0.994405 -0.166592 0.612188 0 255 0
-0.644191 -0.41377 0.628394 0 255 0
-0.42547 -0.499986 0.643093 0 255 0
-0.11503 -0.56274 0.634763 0 255 0
0.702175 0.124657 0.843417 0 255 0
0.203881 1.74268 -0.26692 106 103 96
-0.1395 1.41396 -1.11559 98 93 82
-0.203923 1.32184 -1.41503 45 58 68
0.208375 1.57815 -0.348064 146 136 124
-0.0523139 1.42989 -1.21036 14 13 10
0.290973 1.56269 -0.19234 207 208 198
0.15921 1.32842 -1.02708 50 48 40
-0.00580956 1.10112 -1.323 8 8 7
0.266724 1.22664 -0.663307 31 28 25
0.266724 1.22664 -0.663307 31 28 25
0.350757 1.11154 -0.749986 32 27 25
0.373131 1.09116 -0.767942 28 22 21
0.127732 0.839545 -1.37688 41 40 36
0.596306 1.19829 -0.479121 111 109 103
0.5327 1.08639 -0.810546 224 220 212
0.63935 1.17711 -0.512868 62 59 52
0.658031 0.975737 -0.581725 34 30 26
-0.0983472 0.0966398 0.0624899 218 218 216
0.725874 1.03623 -0.581651 30 25 24
0.555204 0.825672 -0.456652 44 44 41
0.149589 0.322361 -0.0711335 44 38 34
0.63216 0.822534 -0.961697 89 101 116
0.660111 0.852056 -0.553988 224 222 218
0.861877 0.982128 -0.857014 224 224 223
0.582761 0.640666 -0.815589 162 156 149
0.639375 0.693137 -0.833399 117 96 60
0.658361 0.706986 -0.873811 28 20 12
0.943894 0.964046 -0.866143 14 14 15
0.546214 0.560191 -0.938577 33 24 17
0.551052 0.563269 -0.790878 16 13 7
0.904171 0.914314 -0.375798 83 24 26
1.02654 0.971977 -0.879535 47 42 38
1.06428 0.995675 -0.833182 226 226 224
0.59198 0.54215 -0.884208 158 150 138
1.00273 0.948029 -0.362224 130 16 23
0.607188 0.518534 -0.899791 134 118 102
1.05144 0.935 -0.407436 126 24 24
0.770518 0.662525 -0.673007 34 28 26
1.06074 0.906168 -0.330607 114 12 19
0.745702 0.537534 -0.821291 126 88 30
0.626239 0.391772 -0.859635 203 197 181
0.922917 0.662828 -0.474206 170 160 148
0.72599 0.403463 -1.1691 74 74 74
1.01139 0.74281 -0.359623 167 152 133
1.05177 0.743469 -0.589843 43 34 30
0.964053 0.697725 -0.364674 66 42 29
0.855512 0.548392 -0.804826 218 172 11
0.886283 0.588632 -0.527841 34 26 22
0.87489 0.503957 -0.877092 19 15 12
0.78451 0.434388 -0.810039 12 8 6
0.750006 0.360203 -1.12759 66 66 67
1.32022 0.845872 -0.322396 147 43 44
1.07472 0.599456 -0.571271 20 8 6
1.07524 0.614633 -0.421611 94 24 25
1.35516 0.809834 -0.323755 154 49 47
1.34053 0.786647 -0.342216 87 24 28
0.888275 0.337855 -0.883561 38 34 28
1.36798 0.779778 -0.342516 157 120 115
0.959449 0.413922 -0.653996 82 68 54
0.959449 0.413922 -0.653996 82 68 54
0.958973 0.333799 -1.0544 84 99 114
1.05501 0.400643 -0.756297 29 20 17
1.17146 0.512683 -0.302442 190 186 170
1.20277 0.437563 -0.688642 228 228 226
1.20386 0.398637 -0.73671 229 230 226
1.38281 0.387977 -0.500744 68 64 56
1.3635 0.062485 -0.919108 174 174 164
1.43097 0.035498 -0.94773 45 43 34
1.57699 0.0749146 -1.02943 92 108 119
1.38218 -0.0845768 -1.08572 21 20 16
1.59953 -0.116351 -0.949506 89 110 125
1.54951 -0.353764 -1.26923 103 104 99
0.592438 0.919343 -0.657015 228 225 221
0.650233 0.639807 -0.651662 102 82 65
0.808142 0.692597 -0.993137 18 15 8
0.841247 0.699425 -1.00228 84 88 92
0.734794 0.518437 -0.860755 156 107 16
0.772447 0.467734 -0.792297 58 41 23
1.08147 0.665658 -0.347016 168 148 125
0.927907 0.372669 -1.03547 88 98 109
1.3794 -0.019618 -1.01388 56 54 43
0.496747 0.757176 -0.842698 16 12 10
1.63429 0.961616 -1.4721 18 13 11
1.65651 0.331007 -0.832282 104 104 94
1.45373 0.00223669 -1.04803 125 118 104
0.719566 0.802325 -0.460914 36 30 24
0.49644 0.445735 -0.928348 46 38 28
0.490133 0.433929 -0.920786 46 38 28
0.477288 0.359609 -0.506377 20 16 14
0.790636 0.342437 -1.09416 77 70 62
0.943171 0.373505 -1.03261 196 196 192
1.01468 0.532142 -0.286729 107 90 76
1.47207 0.65491 -0.897113 26 17 17
1.37131 0.21436 -0.836248 15 14 12
0.716293 0.616971 -0.626108 90 85 80
0.714335 0.576102 -0.683426 170 161 144
0.602845 0.820431 -0.617376 166 154 141
0.552903 0.552128 -0.797089 49 42 36
0.834788 0.405495 -0.917884 22 18 14
1.14756 0.491206 -0.273617 149 146 132
-0.273451 1.58498 -1.05178 155 152 140
-0.168684 1.44516 -1.13752 20 20 16
-0.107153 1.15009 -1.43967 50 60 68
0.120697 1.40562 -1.03691 170 168 154
-0.0652337 0.948673 -1.51741 76 75 74
0.134836 1.06613 -1.28952 43 43 38
0.535229 1.44845 -0.319035 219 213 204
0.366199 0.976484 -0.860523 162 152 140
0.302803 0.919701 -1.23066 78 76 66
0.426358 0.960179 -0.846677 37 28 23
0.540947 1.09886 -0.82056 224 214 198
0.605725 1.05003 -0.871106 224 224 224
0.397465 0.735013 -0.876036 34 24 16
0.489307 0.780899 -0.706757 92 82 76
0.636307 0.848162 -0.897501 216 216 214
0.612873 0.788767 -0.632785 164 149 137
0.57063 0.65242 -0.725936 40 30 24
0.906067 1.037 -0.910849 224 224 226
0.510101 0.548704 -0.882594 57 46 38
0.608072 0.54497 -0.838135 39 28 22
0.728038 0.67618 -0.899866 124 93 52
0.745242 0.682383 -0.935871 114 80 38
0.508001 0.397651 -0.939823 186 178 166
0.82358 0.750925 -0.463561 44 30 25
0.799027 0.686707 -1.56981 11 11 10
0.813031 0.700376 -1.60768 6 8 14
0.878707 0.703296 -0.44656 17 8 6
0.917816 0.743122 -0.340436 190 167 153
1.05965 0.806921 -0.652822 227 228 224
0.945652 0.695805 -0.37038 202 74 54
0.686965 0.385412 -0.972198 55 46 36
1.04569 0.769405 -0.608614 220 216 212
0.893745 0.604592 -0.549327 185 174 164
0.890953 0.600937 -0.547494 185 174 164
1.11544 0.808965 -0.62829 128 116 106
1.08564 0.706859 -1.07783 89 89 88
1.029 0.662078 -0.436836 88 18 17
0.863748 0.47133 -0.709409 213 169 6
0.766793 0.346103 -0.939186 56 104 147
1.39618 0.953143 -0.820332 230 228 224
1.00731 0.55037 -0.285497 130 64 50
1.36002 0.830914 -0.3094 130 48 46
1.10416 0.58272 -0.345694 55 12 8
1.20705 0.679954 -0.296116 126 40 41
1.16985 0.62414 -0.282996 99 29 32
1.36276 0.77011 -0.359607 228 224 217
1.12361 0.374177 -0.487106 90 69 56
1.39341 0.360187 -0.940573 14 13 13
1.24684 0.245204 -0.663415 230 224 218
1.38012 0.343757 -0.572437 164 166 165
1.34753 0.202105 -0.684487 69 62 58
1.37749 0.20179 -0.749835 202 204 203
1.64568 0.408931 -0.546479 44 23 22
1.6251 0.181438 -1.04176 24 24 20
1.33825 0.0304264 -0.908825 162 154 136
1.30401 -0.0883435 -1.00814 202 198 186
1.46158 -0.121324 -1.37846 108 108 98
0.522643 0.505313 -0.939013 36 32 29
1.66199 0.354168 -0.812653 72 68 56
1.41724 -0.297818 -1.41174 64 81 96
0.60694 1.35457 -0.62147 54 52 46
0.583047 0.96196 -0.656643 222 224 218
0.342992 0.624814 -0.835793 66 62 56
0.587821 0.917606 -0.64175 53 47 44
0.605376 0.778056 -0.699747 44 38 33
0.481925 0.609451 -0.895092 48 36 27
0.578037 0.696077 -0.947436 52 44 38
0.808544 0.828438 -0.345462 74 13 10
0.833024 0.787744 -0.362274 188 76 70
0.669786 0.548902 -0.865073 27 16 10
0.812487 0.536795 -0.817526 216 170 28
0.88911 0.41796 -0.668549 22 16 12
0.955963 0.462245 -0.589856 28 23 20
0.955963 0.462245 -0.589856 28 23 20
1.12197 0.465288 -0.438785 232 114 91
1.12197 0.465288 -0.438785 232 114 91
1.3658 0.382332 -0.190932 79 74 65
0.675 0.747891 -0.742781 85 71 56
0.842134 0.293216 -0.441442 124 114 104
0.869706 -0.0311357 -0.345248 186 180 171
0.625621 0.315053 -0.900667 172 163 150
0.576962 0.840299 -0.658568 44 38 33
0.586713 0.728984 -0.670725 100 87 77
0.680167 0.651446 -0.639677 194 180 165
1.05743 0.0763752 -0.505885 27 22 20
-0.402852 -0.460065 0.594816 122 107 87
0.123007 0.807708 -0.660016 20 18 15
0.11314 0.234101 0.0395528 214 215 210
0.439432 0.708124 -0.958226 81 78 72
0.285795 0.356326 -0.0120044 129 36 36
1.9273 1.86132 -2.86184 82 70 57
0.684175 0.312523 -0.815913 88 86 80
1.35804 0.465182 -0.234679 30 23 20
0.777844 0.0130334 -0.186035 64 63 62
1.41173 0.388436 -0.395161 44 18 21
0.682957 -0.193036 -0.283019 58 52 39
0.673334 -0.194014 -0.243927 26 25 22
0.692652 -0.211335 -0.313456 53 50 42
0.715686 -0.210622 -0.30271 37 34 30
0.463022 0.749916 -0.73066 157 149 137
0.597764 0.908309 -0.803829 61 58 55
0.479543 0.737947 -0.690148 165 155 142
0.553672 0.534198 -0.874713 33 27 22
1.02204 0.467406 -0.632752 64 50 42
0.216249 1.78243 -0.447274 142 135 118
0.522246 0.808576 -0.75979 224 223 218
0.591291 0.784642 -0.952195 7 6 8
0.612418 0.769149 -0.649874 164 157 145
0.677919 0.835008 -0.731328 55 48 44
0.677919 0.835008 -0.731328 55 48 44
0.884195 1.07321 -0.882561 34 30 27
0.648608 0.691709 -0.870231 22 17 17
0.933925 1.11741 -0.967437 225 223 222
0.791499 0.803243 -0.478111 178 164 150
0.652698 0.584211 -0.643392 172 162 144
0.783604 0.699597 -0.624125 30 22 20
0.807555 0.719919 -0.480415 50 33 28
0.756592 0.600076 -0.928995 69 58 48
0.847233 0.694395 -0.810842 40 32 28
0.649418 0.436659 -1.09842 14 14 16
0.876162 0.678493 -0.452731 18 8 9
0.899124 0.668692 -0.435412 18 9 6
0.815441 0.52245 -0.756672 144 98 22
0.938685 0.66375 -0.496827 24 17 16
0.807638 0.496814 -0.53214 76 64 53
0.837506 0.52935 -0.82142 240 196 0
0.874115 0.572826 -0.514901 42 30 28
0.869668 0.556476 -0.554493 172 162 152
0.869668 0.556476 -0.554493 172 162 152
0.794673 0.452685 -0.672816 146 94 12
1.07479 0.758592 -0.610283 46 36 34
0.832966 0.460795 -0.677718 166 119 20
0.767111 0.366113 -1.04682 27 22 18
0.854898 0.479739 -0.662978 170 158 148
0.952731 0.603531 -0.4193 170 160 152
0.793288 0.365358 -1.09224 8 8 6
0.875129 0.46683 -0.510213 136 132 126
0.935738 0.527408 -0.581115 34 32 28
0.922074 0.469743 -1.1572 130 124 112
0.903352 0.467688 -0.577611 106 88 76
1.04319 0.617331 -0.445859 166 157 148
0.84403 0.349939 -0.778715 96 87 77
0.842001 0.32687 -0.839747 18 12 8
0.966861 0.395664 -0.676795 166 156 146
0.96653 0.383104 -0.606349 22 18 17
1.11854 0.567506 -0.430235 145 131 121
1.08612 0.513136 -0.387637 32 22 20
1.00067 0.371606 -0.600042 170 161 148
1.21473 0.594821 -0.379536 228 231 225
1.05852 0.408994 -0.417253 225 117 88
1.17746 0.51316 -0.386575 229 66 66
1.17396 0.419963 -0.266884 42 29 27
1.20904 0.24506 -1.36082 72 90 102
1.33793 0.397504 -0.518102 20 15 13
1.31615 0.246717 -1.11443 56 50 42
1.23437 0.250361 -0.602243 227 228 226
1.25952 0.227586 -0.664179 225 225 220
1.20216 0.156442 -0.560197 80 59 47
1.29763 0.183414 -0.660327 57 53 52
1.55869 0.373079 -0.772565 32 28 24
1.4909 0.345054 -0.56923 160 161 158
1.38937 0.299672 -0.410062 60 30 26
1.3583 0.0708459 -1.32468 47 48 44
1.3583 0.0708459 -1.32468 47 48 44
1.30241 0.155669 -0.685569 206 204 204
1.59368 0.369261 -0.764035 22 18 17
1.3142 0.159661 -0.678997 57 49 48
1.29339 0.108814 -0.771362 36 35 30
1.53154 0.33668 -0.485859 116 95 88
1.6222 0.309853 -0.782118 222 224 219
1.19722 0.0257961 -0.456715 224 226 218
1.58812 0.191423 -0.936973 139 142 142
1.29607 -0.0735194 -0.958599 174 171 164
1.58588 0.258697 -0.285826 130 31 36
1.40182 -0.0887031 -1.05455 105 98 86
1.52173 -0.0174209 -0.930478 89 108 124
1.50704 -0.0752472 -0.793771 92 110 128
1.51687 -0.0724846 -0.801826 92 110 128
1.45181 -0.301214 -1.34245 26 24 22
1.52713 -0.221659 -1.23951 90 95 94
1.53532 -0.209662 -0.73463 116 116 110
1.49439 -0.403737 -1.09007 46 48 48
0.0283836 0.994844 -0.973769 240 236 227
0.350851 1.45684 -0.398114 94 84 67
0.0202324 0.954488 -0.978716 245 242 232
0.0202324 0.954488 -0.978716 245 242 232
-0.0981144 0.965249 -1.49941 28 26 24
0.513881 1.19499 -0.409352 86 80 68
0.393693 0.901214 -0.801594 114 101 84
0.530966 1.08398 -0.77739 141 100 22
0.577023 1.1565 -1.04237 48 44 39
0.678935 1.08239 -0.469563 128 125 116
0.594454 0.970188 -0.635506 40 34 30
0.443834 0.760535 -0.878447 101 95 80
0.574597 0.801341 -0.648517 42 32 30
0.640527 0.819463 -0.839347 72 62 52
0.621132 0.760403 -0.7242 92 78 62
0.735027 0.849521 -0.432583 185 52 50
0.783845 0.932256 -0.761148 26 20 18
0.537892 0.428687 -0.882916 40 31 24
0.569499 0.356576 -0.211878 140 153 171
0.997419 0.935542 -1.22029 24 22 20
0.997419 0.935542 -1.22029 24 22 20
0.965615 0.893688 -1.20163 80 76 70
0.747585 0.478265 -0.871977 42 32 21
0.991194 0.758543 -0.33169 14 10 12
0.918812 0.550749 -0.679955 170 162 150
0.808508 0.380646 -1.10013 24 20 16
0.799799 0.368394 -0.862336 100 95 85
0.920199 0.387847 -0.670904 27 22 20
0.95841 0.401059 -0.805968 68 60 58
1.21856 0.533836 -0.397308 40 22 20
1.4145 0.450552 -0.583086 20 12 12
1.13391 0.241362 -0.291626 132 129 122
1.62794 0.528532 -0.422619 36 21 21
1.62117 0.499701 -0.408297 216 218 211
1.82752 0.393598 -1.39976 24 20 15
1.82752 0.393598 -1.39976 24 20 15
1.56409 0.266754 -0.968488 55 50 42
1.56409 0.266754 -0.968488 55 50 42
1.32445 0.0807571 -0.823323 150 142 131
1.07697 -0.0840865 -0.589701 88 82 74
1.38266 0.0911047 -0.826356 94 92 76
1.50375 0.279285 -0.257269 99 88 72
1.52619 0.0804501 -0.997755 31 28 20
1.52619 0.0804501 -0.997755 31 28 20
1.58736 0.229219 -0.468192 102 90 78
1.66752 0.275045 -0.402163 66 64 59
1.62335 0.241222 -0.375518 196 174 168
1.46698 -0.365084 -1.11553 20 20 18
0.239044 0.131714 -0.181464 138 136 132
1.11634 0.901119 -0.492298 188 80 54
1.10978 0.688653 -0.386924 54 40 30
0.656041 0.610695 -0.716952 166 153 138
0.830861 0.644454 -0.611041 28 24 24
1.09728 0.624013 -0.306504 202 196 178
0.589325 0.844597 -0.606396 95 80 66
0.60959 0.765569 -0.616545 46 36 28
1.11593 0.459728 -0.513123 234 178 142
1.21199 0.352993 -0.501003 102 76 58
1.29125 0.221963 -0.486494 28 26 28
0.516358 0.570121 -0.944348 160 154 142
0.580361 0.62593 -0.898806 172 165 148
0.78187 0.576289 -0.968211 28 15 4
0.66372 0.379894 -0.954118 186 181 169
0.72952 0.457667 -0.819879 135 125 107
1.01782 0.689633 -0.484119 167 159 149
1.27252 0.917164 -0.865902 232 232 230
1.43148 0.866821 -0.402574 98 28 32
1.14079 0.490439 -0.736375 26 18 16
1.00424 0.32658 -0.657939 170 159 148
1.1522 0.522606 -0.284948 156 148 136
1.39938 0.592429 -0.273612 226 229 221
1.41229 0.42106 -0.477146 74 67 64
1.29015 0.301819 -0.397033 28 16 16
1.00109 0.370875 -0.653013 177 170 160
1.13835 0.197087 -0.470629 51 28 27
0.480197 0.440926 -0.937777 49 44 34
1.0499 1.07817 -0.752422 148 142 140
0.137885 -0.4412 0.493509 210 72 64
0.561063 0.765574 -0.882715 16 14 10
0.979126 0.349695 -0.543285 90 82 76
0.993065 0.432738 -0.593721 168 158 149
1.01299 0.35047 -0.614615 170 162 149
1.01486 0.325986 -0.608828 174 166 154
0.902196 0.705306 -0.494661 154 146 136
1.13898 0.412098 -0.41195 242 122 114
0.414473 0.489682 -0.33584 56 51 44
0.51115 0.646927 -0.477758 21 13 10
0.638785 0.702361 -0.755261 79 66 53
-0.0608178 -0.472599 0.556208 37 29 26
1.13629 1.50656 -1.33197 43 38 34
0.291723 1.82649 -0.604593 20 19 17
-0.222619 1.20723 -1.37673 133 136 124
-0.00456311 1.38604 -1.09147 36 38 34
-0.18217 1.06027 -1.37233 66 76 82
0.0399637 1.31419 -1.07348 164 168 160
0.0895145 1.28983 -1.01561 172 176 168
0.403722 1.51763 -0.555777 82 74 59
0.41915 1.46681 -0.462382 19 18 17
0.453343 1.46181 -0.427687 44 39 38
0.485387 1.42664 -0.561414 155 148 129
0.478178 1.40494 -0.585822 124 117 104
0.524954 1.36164 -0.598651 18 17 18
0.537515 1.35631 -0.536467 19 16 16
0.271396 1.04096 -0.893141 124 116 106
0.393632 1.11808 -0.923143 211 212 210
0.0693693 0.745049 -1.3408 31 31 32
0.57661 1.26319 -0.600664 52 47 38
0.146299 0.771278 -1.25342 89 86 78
0.259328 0.891528 -1.11387 86 82 73
0.464503 1.00447 -0.830484 17 12 11
0.370703 0.714749 -0.841583 33 26 19
0.481905 0.631534 -1.19625 17 19 21
0.707137 0.307966 -0.82831 46 82 125
1.28092 0.681875 -0.310792 220 220 209
0.505398 1.41197 -0.516738 26 24 24
0.405022 0.863602 -1.24768 10 10 10
-0.123334 1.38237 -1.18362 8 9 8
0.284369 1.89105 -0.623976 192 193 187
-0.108598 1.39415 -1.22896 148 146 132
0.333928 1.92057 -0.506903 196 191 180
-0.0513392 1.4183 -1.17306 11 11 10
-0.0473796 1.35449 -1.13245 144 146 134
0.30414 1.71012 -0.560214 131 128 114
0.0330237 1.51878 -1.46048 168 166 150
0.365584 1.74925 -0.540002 34 16 16
-0.0743581 1.08899 -0.997258 79 72 56
-0.122456 1.06688 -1.19525 154 154 140
0.382486 1.71178 -0.641579 74 74 65
-0.104698 1.09319 -1.32201 106 108 96
-0.0788922 1.01059 -1.05487 34 34 29
-0.0810161 1.01889 -1.15895 143 140 128
0.110914 1.26009 -1.09526 158 160 151
-0.020606 1.03798 -1.25512 24 25 22
0.287421 1.39248 -0.729614 15 13 12
0.021264 1.01849 -1.22253 108 110 96
0.431146 1.47246 -0.447698 49 46 42
0.440062 1.49962 -0.551823 126 119 97
0.439432 1.4645 -0.44273 186 184 172
0.439432 1.4645 -0.44273 186 184 172
0.539926 1.65887 -0.762131 196 199 191
0.477799 1.47734 -0.52779 14 12 12
0.0631498 0.990287 -1.28106 36 34 29
0.101189 1.04875 -1.40849 80 85 80
0.13075 1.00725 -1.26694 30 28 24
0.0718336 0.936308 -1.32562 10 10 8
0.279823 1.17439 -0.95571 32 30 29
0.0558976 0.886896 -1.21471 80 92 96
0.12856 0.939464 -0.916477 106 102 90
0.200628 1.07478 -1.3629 94 101 104
0.118657 0.942973 -1.28739 40 38 34
0.327217 1.11635 -0.942233 25 25 24
0.6415 1.48009 -0.465981 211 210 200
0.183564 0.931853 -1.20328 100 110 116
0.184408 0.908032 -1.1621 37 37 32
0.635035 1.40134 -0.503816 212 84 79
0.673971 1.42264 -0.532719 192 94 90
0.698153 1.43723 -0.515715 220 206 198
0.251455 0.881853 -0.980157 6 6 6
0.235189 0.792693 -1.22995 36 37 33
0.6857 1.29281 -0.73251 38 40 35
0.336358 0.850924 -1.19628 104 117 128
0.627311 1.17629 -0.613041 38 35 29
0.689642 1.18335 -0.563368 22 21 16
0.714311 1.19533 -0.537243 33 30 24
0.696963 1.13473 -0.582776 30 30 26
0.354988 0.73859 -1.05884 31 14 18
0.524109 0.925641 -0.890918 217 218 216
0.725971 1.12076 -0.570137 26 24 20
0.357669 0.683544 -0.860495 53 44 34
0.353217 0.668954 -0.814199 190 182 163
0.349862 0.63677 -0.897066 55 49 44
0.431522 0.724206 -0.840822 101 94 82
0.759985 1.08359 -0.539618 52 48 43
0.503832 0.794017 -0.711801 82 76 72
0.628047 0.911203 -0.68836 83 74 64
0.617714 0.892565 -0.694972 40 36 30
0.532032 0.785622 -0.678214 57 52 52
0.555516 0.801407 -0.66721 40 31 24
0.72077 0.884207 -0.566248 11 10 22
0.542746 0.661224 -0.92328 47 37 31
0.693009 0.830408 -0.590586 178 164 146
0.901921 1.01158 -0.495492 99 34 31
0.504663 0.575158 -0.821488 157 148 132
0.591324 0.637877 -0.833031 132 126 120
0.749427 0.818864 -0.555765 43 34 26
0.482649 0.505983 -1.07775 7 8 9
0.764129 0.823509 -0.588036 185 180 170
0.532571 0.577132 -0.802539 168 157 140
0.993468 1.00264 -0.853965 128 128 128
0.691562 0.678792 -0.872087 134 111 78
0.562203 0.574895 -0.723168 130 111 80
0.730318 0.770104 -0.380944 74 42 38
1.01268 1.00579 -0.455162 196 66 66
0.723062 0.670499 -0.890528 141 118 76
0.579264 0.537717 -0.78583 162 154 140
0.666085 0.62974 -0.611124 72 58 46
0.772092 0.655271 -0.910646 10 10 8
1.03242 0.895218 -0.781149 9 9 8
0.67251 0.485774 -1.37808 16 14 12
0.740157 0.605319 -0.930823 93 69 42
1.03599 0.890386 -0.76906 126 124 124
0.677782 0.460906 -1.44006 86 84 82
0.661622 0.558081 -0.684417 112 92 76
1.09808 0.96897 -0.443376 100 14 20
0.80619 0.676781 -0.656711 30 25 20
1.19146 0.967068 -0.808029 106 104 103
0.817953 0.630965 -0.676785 131 119 108
0.908743 0.720409 -0.514121 23 18 14
0.608864 0.398897 -0.878748 48 41 32
1.08293 0.738792 -0.97327 218 218 218
0.624218 0.353094 -0.907362 162 156 142
0.950956 0.685355 -0.50728 173 164 152
0.854697 0.592451 -0.569046 78 64 52
1.0556 0.675283 -0.874131 126 126 123
0.985207 0.679421 -0.539002 80 75 66
0.657561 0.309582 -0.970009 10 8 6
1.14642 0.809846 -0.37353 211 75 72
0.955249 0.576488 -0.762252 17 12 10
0.921277 0.555633 -0.557942 182 174 162
1.06855 0.704927 -0.383257 36 26 17
0.690811 0.277972 -1.01493 116 111 91
0.677564 0.270861 -0.996759 116 111 91
0.858482 0.458551 -0.695759 198 150 10
1.21074 0.798454 -0.356031 128 32 32
1.19719 0.785139 -0.360682 191 64 62
1.05775 0.53474 -0.935306 220 221 222
0.74125 0.278609 -0.845553 91 88 80
0.86828 0.420743 -0.634909 166 156 146
0.811444 0.316923 -0.735704 12 10 7
0.725012 0.185037 -0.994934 107 117 126
1.26894 0.712566 -0.343521 160 59 52
1.09768 0.584036 -0.284751 174 166 152
1.2241 0.64788 -0.373794 95 65 56
1.29016 0.687896 -0.315536 220 218 208
1.14261 0.574375 -0.309879 133 124 118
1.17656 0.589788 -0.294442 104 91 70
1.06154 0.431659 -0.591502 83 70 60
0.979906 0.365391 -0.609921 170 159 147
0.985246 0.365941 -0.581645 166 158 146
1.16708 0.434995 -0.682238 15 13 12
1.18937 0.530347 -0.297386 177 173 160
1.31715 0.602623 -0.31591 146 144 130
1.46004 0.626108 -0.495526 218 220 213
1.08554 0.341167 -0.537788 204 64 62
1.16166 0.363259 -0.490014 232 212 194
1.36945 0.50066 -0.437712 17 13 12
1.49675 0.580069 -0.342942 48 47 38
1.25364 0.380044 -0.476432 177 45 42
1.27437 0.386241 -0.480595 154 50 46
1.30099 0.39433 -0.48398 221 216 212
1.39527 0.39359 -0.458395 20 12 12
1.15735 0.199385 -0.576827 198 73 70
1.18333 0.0336979 -1.11018 58 49 40
1.18333 0.0336979 -1.11018 58 49 40
1.43884 0.389334 -0.467001 122 44 37
1.36352 0.33871 -0.484789 96 86 78
1.23576 0.0764479 -0.756767 80 76 72
1.18052 -0.124122 -1.18468 102 114 123
1.57138 0.230142 -0.722124 208 214 208
1.23912 0.0504535 -0.734671 24 22 22
1.51618 0.185538 -0.745572 189 190 178
1.54256 0.196627 -0.749455 70 72 60
1.2653 0.0522532 -0.673774 68 64 58
1.43581 0.207167 -0.437719 100 89 70
1.46193 0.231089 -0.33062 229 228 215
1.48365 0.188135 -0.458935 98 94 79
1.20415 -0.168711 -1.03417 104 119 130
1.19553 -0.17029 -1.02382 104 119 128
1.4784 0.191384 -0.420459 118 108 92
1.49884 0.0372363 -0.848865 102 104 96
1.53816 0.225585 -0.400756 166 144 134
1.49481 0.00890319 -0.885474 210 214 208
1.62106 0.235788 -0.442059 37 38 31
1.49192 -0.0109447 -0.886723 118 123 116
1.11898 -0.175368 -0.848346 104 96 80
1.48998 -0.0358929 -0.908722 108 115 106
1.71543 0.267575 -0.289672 68 72 65
1.43029 -0.162388 -0.886241 121 130 133
1.42781 -0.15143 -0.730616 206 212 210
0.4265 1.50756 -0.560882 62 59 40
0.277837 0.738265 -0.846413 66 60 48
0.485006 0.731185 -0.687402 56 51 48
0.413577 0.507595 -0.982223 104 114 124
0.868025 0.915095 -0.453273 66 18 18
0.844759 0.752443 -0.52839 168 160 150
0.881071 0.736121 -0.5161 5 16 46
0.826485 0.664363 -0.592916 221 221 220
0.959771 0.465261 -0.588833 20 16 12
1.1563 0.629859 -0.388982 25 14 12
1.02157 0.316536 -0.622801 172 164 150
1.12724 0.327233 -0.258119 20 13 12
1.12107 0.211845 -0.58012 171 69 68
1.1961 -0.0485801 -0.863036 117 134 142
-0.113707 1.36525 -1.20101 150 148 134
0.272559 1.85251 -0.607264 193 196 186
0.265772 1.80801 -0.568308 46 44 31
-0.110188 1.08091 -1.03121 80 78 59
-0.123 1.00318 -1.02032 131 133 118
0.396868 1.72136 -0.507719 32 14 17
-0.0228411 1.06867 -0.957759 83 37 2
0.0831802 1.24736 -1.06913 61 60 54
0.127275 1.27269 -0.993423 38 38 34
0.286808 1.34691 -0.741831 6 18 42
0.43387 1.49727 -0.561596 138 132 114
0.191358 1.16216 -1.02965 161 164 157
0.0945658 0.892735 -0.977443 24 20 14
0.354977 1.26489 -0.751818 18 16 12
0.063406 0.912329 -1.28997 14 14 12
0.0799243 0.91248 -1.25764 66 76 78
0.587107 1.37071 -0.482639 46 36 33
0.123884 0.779981 -1.30556 48 48 44
0.103949 0.733878 -1.30869 70 68 64
0.673214 1.4209 -0.533313 196 80 76
0.451763 1.04736 -0.849145 64 56 51
0.227229 0.708165 -0.847305 10 8 5
0.670246 1.29866 -0.719987 33 34 30
0.472157 1.0247 -0.857049 15 12 10
0.472157 1.0247 -0.857049 15 12 10
0.29772 0.748539 -0.875558 183 181 168
0.711231 1.14521 -0.606622 120 122 114
0.492722 0.78038 -0.838562 105 104 96
0.800313 1.16186 -0.613896 33 32 30
0.532294 0.821044 -0.738949 170 162 148
0.633421 0.920363 -0.714712 36 32 27
0.475576 0.660628 -0.931463 10 8 6
0.91641 1.08667 -0.528432 220 216 210
0.788053 0.83929 -0.551111 37 30 25
0.676364 0.663079 -0.896558 113 90 57
0.703723 0.659842 -0.891022 126 101 56
0.720206 0.65498 -0.915375 132 106 60
0.506486 0.412723 -1.02691 6 7 10
0.767105 0.671652 -0.949433 228 222 212
0.64107 0.48337 -1.55057 82 92 100
0.914112 0.838358 -0.533803 184 163 152
0.612026 0.463923 -0.849623 164 156 146
0.792206 0.634891 -0.823223 54 46 42
0.869919 0.69795 -0.654679 41 36 32
0.844433 0.649473 -0.834496 65 56 49
0.902645 0.734017 -0.530422 172 166 155
1.08073 0.829506 -0.381472 180 36 38
0.95773 0.692691 -0.51393 178 170 157
0.668106 0.345354 -0.892114 34 28 24
0.835459 0.509417 -0.791302 216 170 14
0.804418 0.469887 -0.785378 241 198 3
0.85565 0.481229 -0.777414 234 192 2
0.724522 0.315304 -0.933749 25 22 18
0.944266 0.530408 -0.522183 45 43 40
0.782368 0.297866 -0.852584 90 84 76
1.09976 0.639626 -0.295263 104 92 72
1.14209 0.649384 -0.37889 70 44 30
1.17915 0.615317 -0.315822 194 190 179
1.15055 0.558389 -0.291157 118 110 91
1.12117 0.363795 -0.831631 36 35 36
1.32581 0.614626 -0.309011 224 225 214
1.32532 0.548375 -0.360335 191 185 172
1.2589 0.457629 -0.431796 24 12 10
1.13758 0.191816 -1.09129 26 28 30
1.21522 0.365642 -0.465813 189 58 47
1.59193 0.645418 -0.411556 48 40 34
1.16686 0.311886 -0.506185 235 186 138
1.49292 0.582608 -0.324573 210 212 198
1.39491 0.421436 -0.418456 29 18 18
1.19156 0.0753567 -1.01823 53 50 43
1.22148 0.0216976 -1.14977 106 118 129
1.25547 0.175717 -0.667664 55 54 52
1.43092 0.251464 -0.458842 35 27 18
1.21242 -0.0691685 -0.968468 108 124 136
1.48701 0.220366 -0.495496 84 76 64
1.44532 0.212861 -0.429522 98 89 72
1.56757 0.265586 -0.475677 213 215 206
1.20413 -0.135746 -1.02612 102 118 130
1.47443 0.285363 -0.246257 96 88 70
1.4964 0.196166 -0.485367 155 158 149
1.22922 -0.113861 -0.904989 10 11 9
1.59696 0.293992 -0.2493 130 24 33
1.49696 0.0139791 -0.868671 102 106 98
1.51023 0.198098 -0.354097 138 40 41
1.65342 0.301505 -0.26362 87 51 48
1.63386 0.229651 -0.430304 94 83 73
1.22662 -0.14156 -0.83712 53 54 50
1.65701 0.281994 -0.285748 88 74 73
1.21279 -0.177882 -0.86167 140 141 136
1.65835 0.263167 -0.29833 212 213 206
1.38053 -0.278747 -0.908103 106 122 135
1.38053 -0.278747 -0.908103 106 122 135
1.34559 -0.423192 -1.03654 46 48 44
1.53592 -0.232553 -0.618614 57 58 54
