ply
format ascii 1.0
element vertex 190
property float x
property float y
property float z
property uchar red
property uchar green
property uchar blue
end_header
-0.596063 -0.35635 -0.149948 0 255 0
-0.707515 -0.179099 -0.149752 0 255 0
-0.502065 -0.294612 -0.12409 0 255 0
-0.484835 -0.300415 -0.112301 0 255 0
-0.458458 -0.235494 -0.032361 0 255 0
-0.527971 -0.250756 -0.019652 0 255 0
-0.546915 -0.247727 -0.0269905 0 255 0
-0.409211 -0.255274 -0.0229326 0 255 0
-0.387448 -0.264028 -0.0243498 0 255 0
-0 -0 -0 0 255 0
-0.659857 -0.154292 -0.131772 0 255 0
-0.40769 -0.2841 0.0627647 0 255 0
-1.12279 -0.681816 -0.434095 0 255 0
-1.1784 -0.734478 -0.463956 0 255 0
-0.417419 -0.067602 0.0782279 124 94 52
-0.404218 -0.0760592 0.0764202 133 102 48
-0.329369 -0.260746 0.0218371 214 215 214
-0.373082 -0.287419 0.0734593 134 116 92
-0.434974 -0.132815 0.103988 124 98 50
-0.420099 -0.15443 0.101585 148 116 60
-0.414772 -0.0822781 0.0803682 50 35 28
-0.410222 -0.0753386 0.0780717 138 108 46
-0.403044 -0.101016 0.0825232 62 38 23
-0.397047 -0.124591 0.0848983 38 20 7
-0.397009 -0.119187 0.0832404 145 114 57
-0.39026 -0.0885844 0.0736189 154 125 63
-0.392508 -0.0777478 0.0720204 100 76 53
-0.383688 -0.112117 0.0760717 154 119 60
-0.384448 -0.100486 0.074078 150 120 64
-0.385156 -0.0793465 0.0682535 206 152 142
-0.50492 -0.328558 -0.0610409 70 42 23
0.376965 -0.492367 0.427887 131 94 36
0.285778 -0.399727 0.313927 166 132 69
0.225152 -0.297482 0.202471 88 60 32
0.589544 -0.456737 0.469882 101 66 27
-0.274117 -0.275526 0.0529315 166 134 72
-0.329422 -0.260737 0.0218165 230 232 233
-0.405536 -0.0776324 0.0700585 154 123 56
0.195687 -0.43789 0.424268 67 40 24
0.289893 -0.456037 0.411634 88 50 20
0.209482 -0.333011 0.348031 100 72 56
0.274599 -0.382687 0.38401 135 99 64
0.234684 -0.36061 0.349293 172 138 129
0.194712 -0.245499 0.331936 120 72 48
0.49043 -0.384573 0.502627 111 76 30
0.350934 -0.263628 0.424903 160 108 92
0.350934 -0.263628 0.424903 160 108 92
0.242173 -0.243669 0.331412 193 156 139
0.287357 -0.225996 0.301071 186 140 122
-0.0609409 -0.327483 0.103332 40 24 20
-0.20083 -0.322187 0.00917755 153 142 132
0.230857 -0.285279 0.331511 72 40 10
0.230857 -0.285279 0.331511 72 40 10
0.0610629 -0.335947 0.367143 98 68 54
0.172079 -0.390041 0.402346 128 100 50
0.270553 -0.260239 0.328654 204 134 125
0.0649956 -0.481809 0.435144 74 48 36
0.179137 -0.415896 0.408321 164 151 166
0.0946149 -0.201644 0.303743 188 146 110
0.21947 -0.266882 0.343844 112 70 56
-0.023307 -0.250466 0.336517 182 162 129
0.200681 -0.44151 0.427534 64 40 27
0.153899 -0.357903 0.397284 102 80 74
-0.00636851 -0.152361 0.304495 118 70 42
0.204795 -0.262803 0.342321 106 70 58
0.351781 -0.472751 0.35827 142 109 56
0.0433669 -0.254473 0.337776 176 129 125
0.355886 -0.527935 0.412554 160 154 149
0.368908 -0.36005 0.276604 143 131 118
0.0608583 -0.370415 0.447576 120 88 56
0.151708 -0.50575 0.4985 143 111 70
0.183675 -0.519041 0.526603 143 111 70
0.129401 -0.394148 0.470453 50 30 20
-0.0914477 -0.114702 0.30248 80 61 34
-0.0496445 -0.149188 0.323553 70 43 18
0.166441 -0.342895 0.441798 110 76 38
0.0659184 -0.223345 0.368122 84 52 23
0.245781 -0.540016 0.425409 226 236 242
-0.0225057 -0.117349 0.296552 99 74 52
0.550321 -0.552839 0.546158 94 56 32
0.550321 -0.552839 0.546158 94 56 32
0.321375 -0.547276 0.392824 231 236 241
0.423046 -0.526094 0.393932 101 66 34
0.0855084 -0.147679 0.267654 121 90 46
0.337712 -0.317863 0.354432 75 44 21
0.201371 -0.359997 0.258625 127 118 109
0.374171 -0.333415 0.346635 74 41 18
0.293956 -0.244869 0.258985 172 142 112
0.616962 -0.395772 0.319623 168 152 127
-0.361894 -0.245081 0.0502375 176 133 105
0.284455 -0.526837 0.525155 64 36 18
0.307296 -0.449209 0.467268 112 101 72
0.33248 -0.476537 0.47026 141 106 56
0.33248 -0.476537 0.47026 141 106 56
0.14351 -0.245815 0.367459 114 88 75
0.0897139 -0.150549 0.263947 40 30 28
0.360294 -0.405985 0.361585 84 50 26
0.44153 -0.502648 0.356194 198 172 137
0.171709 -0.343448 0.165135 114 114 118
-0.401172 -0.255177 -0.00376833 114 87 68
0.41198 -0.44703 0.345803 56 36 34
0.00703514 -0.403161 0.395283 222 224 226
0.789966 -0.57333 0.953885 136 104 56
0.199657 -0.354539 0.50392 86 52 26
0.293694 -0.527497 0.533519 62 36 18
0.104971 -0.385031 0.382109 92 71 65
0.754495 -0.674298 0.729471 68 48 38
-0.269723 -0.230597 0.117543 184 142 104
-0.317469 -0.207253 0.0773415 46 36 32
-0.338573 -0.202062 0.066504 86 66 41
-0.527971 -0.250756 -0.0196518 91 78 68
-0.340282 -0.201151 0.0651986 85 64 38
-0.340282 -0.201151 0.0651986 85 64 38
-0.295998 -0.209894 0.0810021 56 40 25
-0.287912 -0.207934 0.0825603 56 39 25
-0.287912 -0.207934 0.0825603 56 39 25
-0.25154 -0.196668 0.0920966 192 192 190
-0.19276 -0.196085 0.0888825 126 98 56
0.24354 -0.189864 0.217851 79 61 49
-0.227565 -0.194607 0.0763668 48 37 34
-0.270172 -0.191754 0.0638673 184 188 186
5.35255 -1.02918 3.71446 141 125 148
-0.0445599 -0.366817 0.381613 128 113 96
0.288983 -0.547333 0.539091 61 45 44
0.639789 -0.6352 0.672926 136 106 69
0.681671 -0.646213 0.682914 72 52 41
0.787948 -0.6836 0.721863 61 48 48
0.319559 -0.277444 0.232347 132 104 69
0.032749 -0.334344 0.133181 120 114 104
-0.396929 -0.261149 -0.0140771 246 246 248
-0.396912 -0.261127 -0.0140878 245 246 248
-0.396663 -0.261123 -0.0141336 81 70 63
-0.396507 -0.260908 -0.0141649 122 114 108
-0.399723 -0.255261 -0.015254 119 78 60
-0.398959 -0.254838 -0.0153254 108 78 61
-0.395237 -0.2597 -0.0145212 114 82 42
-0.398433 -0.25427 -0.0154569 191 150 108
-0.398485 -0.25398 -0.0155926 154 116 82
-0.44046 -0.242544 0.0252831 118 84 32
2.28019 0.804377 2.04246 182 113 78
2.19687 0.845701 1.87006 152 74 63
1.96471 0.705911 1.55501 94 70 66
1.8138 0.483077 1.40885 146 146 154
1.7907 0.459171 1.37789 178 147 139
1.7313 0.437279 1.28756 152 102 84
1.77839 0.608349 1.29543 128 85 71
1.68189 0.638315 1.13348 164 134 68
1.66162 0.587903 1.11617 123 90 31
1.6572 0.624123 1.10408 168 138 68
1.57803 0.457923 1.03637 160 130 66
1.51806 0.536987 1.00104 159 132 60
1.60358 0.540314 1.03229 102 76 39
-0.115216 -0.262968 0.626141 34 20 9
-0.637875 -0.171498 0.0682661 197 192 188
0.730864 -0.280653 1.09654 128 93 42
1.17312 -0.47927 1.38035 47 28 17
-0.611471 -0.15603 0.0750313 76 56 32
0.205691 -0.0264873 0.706088 175 132 94
0.510817 -0.00448705 0.862152 112 73 34
0.510817 -0.00448705 0.862152 112 73 34
-0.148573 -0.0490733 0.369545 68 33 6
-0.458802 -0.146116 0.133096 88 56 36
0.598809 0.0441445 0.898878 115 89 38
0.826654 0.0670516 0.982755 217 134 95
1.40194 0.0643513 1.31395 218 175 134
1.05434 0.078182 1.09281 113 59 60
-0.490563 -0.211411 0.0202902 166 124 90
-0.0366656 -0.0386359 0.317939 180 138 88
-0.381304 -0.163102 0.0835212 146 100 60
-0.547306 -0.243494 -0.0338786 182 140 88
3.24756 0.0607802 2.11969 147 142 162
0.711945 0.106764 0.70351 199 110 83
0.711945 0.106764 0.70351 199 110 83
-0.62017 -0.301438 -0.105568 110 72 61
0.689316 0.0976975 0.644668 194 151 106
-0.0694749 -0.0866921 0.203841 86 51 20
0.608451 0.083344 0.569268 108 72 48
1.25698 0.168823 0.916555 222 190 168
-0.200861 -0.144866 0.0778296 116 98 76
3.15414 0.526135 1.77411 142 102 36
-0.102844 -0.121223 0.118693 120 84 36
2.29947 0.330639 1.32812 138 97 29
-1.12271 -0.681747 -0.434053 90 74 57
1.52252 0.264468 0.822737 124 75 65
0.405816 0.0171806 0.280209 84 66 46
0.475127 0.0447823 0.289272 113 112 76
5.68966 0.81731 2.4849 80 42 10
0.451586 0.0502022 0.262991 154 109 96
2.23274 0.397968 0.975939 168 130 112
3.10885 0.610092 1.32894 104 65 14
