ply
format ascii 1.0
element vertex 552
property float x
property float y
property float z
property uchar red
property uchar green
property uchar blue
end_header
-0 -0 -0 0 255 0
-1.0992 -1.06913 -1.26354 0 255 0
-0.946586 -0.856517 -1.48102 0 255 0
-0.977391 -0.847237 -1.48921 0 255 0
-1.00868 -1.01184 -1.39929 0 255 0
-1.17149 -1.10671 -1.23254 0 255 0
-1.1906 -1.12165 -1.23796 0 255 0
-1.18419 -1.11728 -1.25069 0 255 0
-1.03626 -0.980108 -1.33296 0 255 0
-0.343196 -0.265831 -1.01487 84 46 26
-0.566418 -0.246554 -0.771746 97 65 46
-0.478439 -0.366157 -0.68564 160 136 118
-0.565084 -0.539676 -0.421876 29 12 6
-0.548179 -0.356085 0.0798974 130 96 70
-0.914374 -0.469642 -0.364932 31 25 17
-0.327098 -0.507401 -1.12238 120 110 118
-0.221342 -0.529106 -1.06706 115 19 19
-0.126322 -0.285474 -0.943544 102 71 36
-0.453353 -0.255785 -1.00646 42 17 12
-0.456775 -0.241275 -0.962864 162 111 89
-0.385027 -0.3427 -0.941512 100 54 30
-0.424441 -0.43073 -0.903728 164 114 98
-0.499091 -0.305663 -0.734362 124 72 53
-0.330238 -0.440948 -0.540561 150 138 116
-0.520057 -0.613676 -0.724981 71 26 12
-0.53136 -0.611209 -0.717802 164 147 125
-0.513701 -0.676861 -0.724043 95 84 68
-0.460958 -0.710703 -0.68454 62 21 18
-0.559863 -0.53728 -0.406564 24 14 11
-0.787689 -0.532568 -0.516507 122 83 56
-0.595401 -0.508462 -0.304997 84 68 44
-0.858454 -0.462482 -0.514895 163 142 112
-0.752602 -0.571853 -0.430655 124 14 7
-0.828009 -0.576941 -0.496767 154 132 124
-0.915524 -0.624524 -0.62146 174 134 114
-0.685585 -0.641047 -0.376552 166 122 100
-0.881071 -0.560795 -0.520909 126 82 56
-0.738454 -0.603859 -0.399646 30 9 7
-0.827202 -0.589055 -0.449598 117 76 58
-0.721551 -0.636759 -0.349944 161 119 99
-0.723083 -0.643936 -0.358307 72 32 14
-0.775465 -0.529977 -0.253525 76 42 26
-0.790972 -0.53884 -0.27738 152 144 98
-0.345557 -0.528443 -1.13058 96 84 90
-0.293156 -0.57816 -1.12095 150 120 106
-0.386236 -0.45281 -1.12632 166 146 128
-0.290043 -0.5459 -1.10143 148 95 32
-0.290043 -0.5459 -1.10143 148 95 32
-0.368485 -0.440757 -1.08617 162 143 118
-0.316478 -0.293366 -1.0106 85 44 22
-0.318223 -0.412415 -0.964306 168 122 98
-0.448979 -0.216718 -0.934548 157 145 98
-0.388211 -0.358957 -0.941124 126 81 56
-0.371794 -0.276198 -0.855056 82 38 15
-0.371794 -0.276198 -0.855056 82 38 15
-0.390335 -0.413064 -0.888185 150 103 93
-0.358982 -0.249674 -0.810497 90 57 23
-0.343586 -0.232507 -0.781854 80 46 16
-0.370383 -0.270248 -0.785732 60 20 5
-0.375768 -0.244583 -0.770254 94 58 26
-0.443053 -0.387278 -0.826828 126 79 55
-0.497703 -0.234192 -0.791011 45 20 6
-0.434993 -0.40031 -0.8092 152 100 86
-0.399561 -0.62109 -0.744696 156 128 116
-0.496846 -0.614794 -0.755921 20 12 10
-0.441748 -0.64575 -0.686785 44 31 16
-0.493059 -0.666928 -0.709928 56 40 28
-0.465103 -0.690793 -0.67386 175 160 158
-0.451796 -0.568509 -0.599482 139 32 22
-0.470695 -0.654544 -0.584393 96 76 61
-0.576791 -0.536426 -0.430832 43 14 6
-0.746302 -0.432352 -0.492011 102 81 46
-0.725545 -0.456303 -0.418816 153 142 100
-0.612135 -0.519479 -0.361627 157 148 126
-0.703905 -0.484457 -0.393091 152 150 99
-0.659617 -0.512241 -0.372114 65 50 24
-0.527653 -0.721704 -0.390391 178 150 144
-0.730861 -0.552681 -0.41523 82 82 66
-0.595381 -0.695845 -0.392586 202 162 144
-0.648312 -0.641588 -0.391603 182 156 136
-0.720392 -0.598215 -0.417529 119 110 108
-0.718058 -0.603217 -0.400593 19 17 21
-0.674215 -0.641454 -0.368394 166 113 92
-0.76603 -0.55347 -0.382944 90 82 65
-0.712691 -0.632989 -0.35885 67 26 14
-0.783885 -0.530645 -0.3245 53 14 3
-0.786435 -0.545735 -0.320095 20 8 6
-0.892076 -0.565393 -0.469343 221 194 182
-0.922962 -0.496136 -0.426997 26 23 19
-0.612023 -0.756445 -0.282064 38 22 10
-0.723081 -0.624 -0.278954 142 79 55
-0.872718 -0.602025 -0.398908 91 94 78
-0.881689 -0.605017 -0.361908 150 132 112
-0.941606 -0.556469 -0.348061 154 129 106
-0.944542 -0.550284 -0.34089 101 70 33
-0.407334 -0.541818 -1.13961 130 110 114
-0.375282 -0.464412 -1.06308 154 106 48
-0.476854 -0.258316 -0.991504 37 16 7
-0.309501 -0.335865 -0.961328 67 28 12
-0.401097 -0.600492 -0.758977 89 63 52
-0.206865 -0.533611 -1.10918 92 18 11
-0.366972 -0.443515 -1.11478 167 146 126
-0.370497 -0.450557 -1.11393 66 10 0
-0.28791 -0.524745 -1.09429 116 16 10
-0.277958 -0.448237 -1.05349 161 142 125
-0.315219 -0.361575 -0.99505 156 142 119
-0.32132 -0.332328 -0.964596 63 22 12
-0.445045 -0.274185 -0.980228 147 88 73
-0.450344 -0.415743 -0.843356 106 58 44
-0.520149 -0.261128 -0.800797 64 16 1
-0.446402 -0.348697 -0.790498 112 68 37
-0.396801 -0.606986 -0.751096 96 73 62
-0.404306 -0.599173 -0.747505 158 134 121
-0.462669 -0.667252 -0.746813 60 45 40
-0.769039 -0.409985 -0.498199 99 92 70
-0.747808 -0.446233 -0.498521 158 130 107
-0.803167 -0.358296 -0.476795 100 69 38
-0.71881 -0.451407 -0.400347 96 28 6
-0.71642 -0.447221 -0.394026 96 28 6
-0.457377 -0.685549 -0.331007 196 170 160
-0.722698 -0.453683 -0.388521 157 154 104
-0.610818 -0.604603 -0.389179 162 124 107
-0.624789 -0.516398 -0.323561 162 153 132
-0.725236 -0.507316 -0.388575 80 78 51
-0.779184 -0.615644 -0.350021 140 102 64
-0.754146 -0.63973 -0.326713 173 150 126
-0.724453 -0.711585 -1.39472 151 52 66
-0.722393 -0.710375 -1.38232 131 80 30
-0.732274 -0.690717 -1.37494 163 141 126
-0.721868 -0.715141 -1.37575 139 31 30
-0.754437 -0.694436 -1.38036 183 152 147
-0.697812 -0.715064 -1.36453 124 16 12
-0.703623 -0.721344 -1.36578 148 30 28
-0.763662 -0.679222 -1.3754 158 142 125
-0.684514 -0.723017 -1.35707 145 32 22
-0.707279 -0.725052 -1.36398 126 18 20
-0.705251 -0.724367 -1.35693 146 90 50
-0.680117 -0.716948 -1.33927 84 15 13
-0.73216 -0.71181 -1.35656 126 120 126
-0.682267 -0.723898 -1.34054 72 6 8
-0.762259 -0.701113 -1.3642 158 143 145
-0.727503 -0.712591 -1.35043 128 124 132
-0.700292 -0.722284 -1.33956 158 104 44
-0.700292 -0.722284 -1.33956 158 104 44
-0.745682 -0.697428 -1.34878 86 13 10
-0.722353 -0.657247 -1.31819 158 143 123
-0.718442 -0.64156 -1.29931 82 46 26
-0.770888 -0.62169 -1.31376 32 14 8
-0.770888 -0.62169 -1.31376 32 14 8
-0.667565 -0.679702 -1.28722 100 64 35
-0.71387 -0.643409 -1.29536 162 136 115
-0.773943 -0.617104 -1.31269 118 76 53
-0.743391 -0.695045 -1.32664 161 118 60
-0.715166 -0.645612 -1.28838 72 32 16
-0.686274 -0.685445 -1.28782 196 151 130
-0.686274 -0.685445 -1.28782 196 151 130
-0.78293 -0.615422 -1.30749 110 72 54
-0.744636 -0.632361 -1.295 106 55 40
-0.713352 -0.647519 -1.285 164 119 96
-0.778593 -0.623856 -1.30751 49 22 14
-0.783746 -0.617238 -1.30612 102 70 54
-0.710342 -0.692611 -1.29795 174 126 106
-0.678605 -0.691907 -1.28034 126 78 56
-0.781329 -0.620384 -1.29767 160 109 91
-0.728522 -0.672866 -1.28908 196 155 133
-0.781781 -0.621328 -1.29235 171 118 99
-0.778816 -0.609253 -1.28376 58 36 12
-0.752674 -0.671753 -1.28032 120 68 49
-0.746257 -0.681442 -1.27898 100 56 36
-0.697295 -0.705015 -1.25462 140 92 73
-0.710784 -0.689414 -1.25174 166 124 112
-0.69616 -0.709699 -1.25077 101 54 39
-0.741616 -0.61719 -1.22958 100 70 41
-0.761412 -0.686248 -1.27149 178 122 103
-0.766845 -0.688116 -1.26835 167 118 105
-0.76463 -0.687388 -1.26412 66 24 12
-0.693428 -0.706538 -1.21978 164 138 130
-0.779612 -0.679304 -1.25866 171 122 101
-0.783267 -0.671603 -1.2526 106 70 40
-0.789787 -0.617335 -1.22387 51 27 5
-0.807995 -0.604341 -1.2222 156 152 106
-0.779331 -0.68334 -1.24961 80 36 18
-0.804494 -0.62633 -1.23067 64 13 2
-0.804494 -0.62633 -1.23067 64 13 2
-0.785643 -0.633959 -1.21967 80 35 10
-0.776467 -0.68379 -1.24339 154 102 90
-0.716218 -0.708127 -1.21132 114 62 35
-0.769444 -0.681836 -1.22847 120 72 50
-0.774478 -0.684972 -1.23073 108 66 42
-0.727735 -0.705268 -1.20548 182 132 110
-0.785199 -0.668634 -1.22064 178 138 122
-0.779594 -0.671169 -1.19315 72 46 29
-0.804777 -0.659045 -1.19694 142 95 74
-0.799466 -0.668455 -1.19559 157 110 90
-0.757146 -0.749651 -1.21473 92 73 60
-0.757146 -0.749651 -1.21473 92 73 60
-0.757146 -0.749651 -1.21473 92 73 60
-0.759933 -0.753412 -1.21566 88 66 60
-0.739388 -0.717155 -1.16566 102 69 38
-0.760427 -0.752005 -1.21481 154 134 121
-0.758118 -0.754791 -1.21465 90 66 60
-0.75847 -0.754121 -1.21328 96 72 66
-0.75847 -0.754121 -1.21328 96 72 66
-0.749969 -0.736367 -1.18872 160 140 126
-0.737386 -0.700351 -1.14293 98 74 35
-0.75775 -0.759532 -1.21037 148 123 110
-0.742524 -0.726337 -1.16704 166 144 131
-0.760155 -0.751388 -1.20557 154 132 116
-0.760263 -0.747194 -1.20047 158 134 118
-0.758676 -0.748151 -1.19787 114 30 24
-0.76825 -0.75459 -1.21039 136 25 18
-0.757392 -0.75921 -1.2008 144 26 24
-0.752261 -0.771589 -1.20469 130 96 84
-0.779629 -0.738485 -1.20341 139 26 22
-0.795231 -0.73692 -1.198 166 151 134
-0.784094 -0.774082 -1.21489 144 24 22
-0.782485 -0.778849 -1.21423 50 38 32
-0.777724 -0.782247 -1.21143 127 109 103
-0.757745 -0.794054 -1.1983 156 128 126
-0.762963 -0.760352 -1.16892 144 20 20
-0.78419 -0.778925 -1.21253 58 44 39
-0.756959 -0.791924 -1.19053 66 38 38
-0.785357 -0.779515 -1.20805 138 125 124
-0.764991 -0.791367 -1.19131 134 96 96
-0.787126 -0.783453 -1.19705 138 118 107
-0.79107 -0.787652 -1.19708 60 44 38
-0.790456 -0.791899 -1.19186 170 158 156
-0.793745 -0.787096 -1.18723 158 136 135
-0.790297 -0.793412 -1.17163 152 134 122
-0.793107 -0.784794 -1.1632 78 54 46
-0.791193 -0.738356 -1.08508 92 80 58
-0.836045 -0.638682 -0.997146 164 162 114
-0.813823 -0.732367 -1.08836 134 83 54
-0.804203 -0.755649 -1.09796 151 126 112
-0.824094 -0.734796 -1.09445 20 14 8
-0.907063 -0.677105 -1.13314 126 68 28
-0.844881 -0.74031 -1.12126 88 60 28
-0.844881 -0.74031 -1.12126 88 60 28
-0.824787 -0.744273 -1.0892 172 136 118
-0.860063 -0.722235 -1.11379 154 122 104
-0.833284 -0.740049 -1.09427 34 18 9
-0.888541 -0.694472 -1.11931 162 158 116
-0.89128 -0.693411 -1.12205 87 66 36
-0.900901 -0.687737 -1.1276 86 74 54
-0.896126 -0.688694 -1.12056 76 74 52
-0.895494 -0.69239 -1.12492 82 73 50
-0.86656 -0.718621 -1.1139 97 56 34
-0.892539 -0.697595 -1.12558 98 69 36
-0.907687 -0.684391 -1.1308 74 39 12
-0.865654 -0.70397 -1.08717 163 158 114
-0.867285 -0.712863 -1.10112 91 19 11
-0.869774 -0.70441 -1.08951 168 156 110
-0.848432 -0.733253 -1.09803 144 116 103
-0.848432 -0.733253 -1.09803 144 116 103
-0.867173 -0.704069 -1.08387 86 38 14
-0.862719 -0.724933 -1.10947 152 124 112
-0.82665 -0.754559 -1.09121 132 112 92
-0.811072 -0.776759 -1.09916 152 128 124
-0.872828 -0.702373 -1.08976 121 65 33
-0.867556 -0.72178 -1.10854 161 127 109
-0.867556 -0.72178 -1.10854 161 127 109
-0.870089 -0.719988 -1.1091 98 46 20
-0.841549 -0.727405 -1.06488 46 32 10
-0.854366 -0.730179 -1.09061 84 66 50
-0.863443 -0.727205 -1.10025 140 106 88
-0.883039 -0.704109 -1.08976 170 150 110
-0.876439 -0.712375 -1.09069 86 50 24
-0.86659 -0.718896 -1.08145 72 41 16
-0.835988 -0.72941 -1.04016 114 104 75
-0.873972 -0.714246 -1.0871 162 154 113
-0.916794 -0.700165 -1.1414 102 62 32
-0.839789 -0.722842 -1.02819 158 149 127
-0.822585 -0.784647 -1.09798 106 70 53
-0.823936 -0.785661 -1.09696 150 114 102
-0.827328 -0.784671 -1.0984 113 72 54
-0.848151 -0.763719 -1.101 124 99 91
-0.855839 -0.742977 -1.07766 69 52 36
-0.844079 -0.765024 -1.09208 10 8 10
-0.916925 -0.711708 -1.14261 96 53 28
-0.871496 -0.711671 -1.0469 152 146 97
-0.83316 -0.784456 -1.09727 147 104 86
-0.846934 -0.76766 -1.09229 158 126 110
-0.846934 -0.76766 -1.09229 158 126 110
-0.849602 -0.766534 -1.09489 32 7 1
-0.822389 -0.798304 -1.09069 134 85 70
-0.917712 -0.72006 -1.14204 138 93 71
-0.908802 -0.727365 -1.13356 130 92 82
-0.868776 -0.759951 -1.10835 183 118 92
-0.88945 -0.731192 -1.09254 119 94 81
-0.88945 -0.731192 -1.09254 119 94 81
-0.883849 -0.736751 -1.08945 63 57 43
-0.835366 -0.792546 -1.09377 114 70 51
-0.868349 -0.76041 -1.09763 122 68 43
-0.840649 -0.790178 -1.09304 73 30 13
-0.838185 -0.797819 -1.09199 166 144 135
-0.857957 -0.775605 -1.08969 178 150 137
-0.909502 -0.738212 -1.13171 156 130 122
-0.907509 -0.739738 -1.12969 84 46 26
-0.857176 -0.776234 -1.08747 65 41 28
-0.85348 -0.779618 -1.08125 126 107 95
-0.857193 -0.776752 -1.08342 174 150 140
-0.845032 -0.794315 -1.09277 155 114 96
-0.871779 -0.767339 -1.09447 144 102 88
-0.893352 -0.745975 -1.09886 110 12 8
-0.850732 -0.784686 -1.07695 191 169 158
-0.850732 -0.784686 -1.07695 191 169 158
-0.892056 -0.751881 -1.10402 161 73 52
-0.897544 -0.748237 -1.1057 174 102 82
-0.883146 -0.759225 -1.09232 12 8 10
-0.874255 -0.766774 -1.08614 132 92 80
-0.8909 -0.755451 -1.10017 156 64 39
-0.9477 -0.703179 -1.12352 119 76 48
-0.951524 -0.690176 -1.10084 166 150 109
-0.86936 -0.777726 -1.09306 135 88 72
-0.899871 -0.745566 -1.09586 110 24 20
-0.898539 -0.749724 -1.10037 114 12 8
-0.904241 -0.738418 -1.08668 162 141 135
-0.876858 -0.769988 -1.09173 23 8 4
-0.863406 -0.776313 -1.06547 27 14 12
-0.917079 -0.74446 -1.12783 160 138 128
-0.854499 -0.785696 -1.05697 180 159 148
-0.86617 -0.776277 -1.06547 124 95 79
-0.86617 -0.776277 -1.06547 124 95 79
-0.884777 -0.766347 -1.08862 120 90 84
-0.884777 -0.766347 -1.08862 120 90 84
-0.890728 -0.762388 -1.09013 140 91 73
-0.888026 -0.76526 -1.08952 46 20 16
-0.921388 -0.745009 -1.12776 108 82 70
-0.835725 -0.814438 -1.06334 182 156 143
-0.845886 -0.806796 -1.06938 126 94 78
-0.877774 -0.776411 -1.07216 178 154 138
-0.920484 -0.748771 -1.12061 161 140 133
-0.886382 -0.771807 -1.07716 128 86 64
-0.860092 -0.788244 -1.04286 144 124 106
-0.850299 -0.807625 -1.06654 187 154 142
-0.867262 -0.786717 -1.05753 174 148 136
-0.851366 -0.806894 -1.06397 144 98 84
-0.850473 -0.808521 -1.06329 152 84 68
-0.927075 -0.746813 -1.12182 154 134 128
-0.926348 -0.747865 -1.12247 105 85 80
-0.884888 -0.775209 -1.07163 74 48 22
-0.862274 -0.78654 -1.03153 136 93 72
-0.927938 -0.748918 -1.12345 175 156 151
-0.849078 -0.811243 -1.05568 40 18 10
-0.847091 -0.813863 -1.05396 170 151 140
-0.851783 -0.807271 -1.045 138 92 70
-0.376795 -0.444434 -1.19851 170 128 120
-0.188387 -0.498588 -1.14516 156 128 112
-0.32317 -0.489796 -1.14382 20 18 33
-0.308142 -0.489849 -1.11574 25 18 29
-0.356652 -0.267815 -1.01476 174 120 94
-0.416414 -0.263644 -1.03183 110 74 54
-0.451702 -0.242119 -1.02285 169 123 96
-0.458375 -0.244688 -0.958273 47 8 0
-0.435363 -0.381205 -0.690489 153 140 117
-0.37558 -0.680568 -0.692417 134 108 106
-0.493448 -0.62503 -0.430391 86 34 32
-0.595508 -0.557425 -0.432256 156 129 112
-0.594469 -0.559111 -0.415479 50 27 8
-0.693158 -0.493746 -0.416521 88 10 9
-0.5233 -0.689321 -0.42641 114 86 80
-0.602936 -0.718383 -0.385734 145 108 92
-0.616015 -0.715511 -0.403764 154 109 88
-0.838826 -0.579019 -0.486891 156 137 130
-0.849993 -0.571878 -0.490013 136 116 108
-0.739516 -0.643159 -0.38284 182 155 136
-0.749102 -0.636001 -0.383859 144 84 61
-0.62411 -0.757857 -0.333954 178 148 134
-0.880406 -0.561857 -0.499748 196 182 179
-0.319849 -0.500184 -1.12698 24 18 34
-0.339911 -0.492421 -1.13107 24 16 26
-0.625051 -0.521699 -0.433504 62 20 2
-0.668725 -0.51032 -0.44823 141 111 95
-0.925756 -0.445611 -0.41624 109 76 49
-0.706716 -0.727343 -1.13148 116 18 12
-0.374933 -0.273302 -0.960156 111 52 26
-0.439787 -0.189721 -0.83433 152 146 96
-0.243995 -0.454285 -0.781898 76 30 14
-0.349861 -0.676174 -0.693088 74 38 32
-0.768258 -0.508169 -0.512016 95 58 30
-0.62637 -0.621573 -0.412416 130 90 71
-0.81901 -0.231467 -0.039756 106 88 53
-0.371702 -0.403406 -0.951332 110 62 35
-0.264076 -0.450716 -0.847407 92 46 23
-0.442696 -0.387793 -0.81389 74 26 8
-0.498447 -0.313817 -0.717849 44 14 10
-0.459259 -0.374812 -0.688198 108 66 44
-0.44842 -0.669479 -0.719724 136 119 116
-0.76031 -0.456106 -0.509318 135 114 98
-0.904936 -0.438382 -0.446864 132 84 53
-0.718916 -0.621439 -0.414983 72 66 72
-0.643001 -0.695181 -0.361152 104 70 52
-0.650567 -0.683665 -0.338133 194 172 161
-0.920697 -0.633533 -0.77692 104 66 42
-0.918292 -0.496934 -0.413961 37 38 28
-0.370797 -0.334729 -0.935747 139 94 70
-0.374491 -0.338485 -0.938341 139 94 70
-0.509203 -0.347403 -0.6878 56 30 7
-0.327394 -0.435145 -0.553928 91 68 30
-0.53653 -0.720152 -0.383914 124 62 64
-0.709512 -0.590729 -0.412589 138 110 101
-0.609272 -0.655484 -0.300508 196 174 164
-0.574511 -0.75868 -0.301752 134 102 84
-0.762081 -0.541108 -0.263014 159 146 104
-0.762081 -0.541108 -0.263014 159 146 104
-0.669307 -0.682084 -0.312617 30 22 16
-0.930573 -0.902465 -1.17084 152 142 106
-0.626222 -0.647307 -0.353216 128 103 90
-0.918143 -0.435493 -0.432666 110 56 26
-0.926428 -0.434833 -0.405056 104 72 34
-0.308631 -0.443329 -1.13962 114 12 14
-0.593208 -0.519978 -0.423262 198 170 146
-0.807546 -0.344738 -0.463715 95 70 28
-0.700362 -0.475241 -0.394262 88 43 14
-0.246068 -0.234458 0.51923 156 134 118
-0.333528 -0.510298 -1.14055 109 105 116
-0.460759 -0.246969 -0.95947 41 9 2
-0.3834 -0.348898 -0.927617 125 84 58
-0.526675 -0.292879 -0.694897 156 146 108
-0.415396 -0.579249 -0.717959 146 31 24
-0.528112 -0.625564 -0.739258 72 26 10
-0.494461 -0.6793 -0.634301 140 125 116
-0.506973 -0.681073 -0.632956 82 55 44
-0.515869 -0.544627 -0.411467 147 112 88
-0.568123 -0.523308 -0.423557 95 70 40
-0.548741 -0.531119 -0.408085 22 14 6
-0.535449 -0.541578 -0.400105 38 18 6
-0.75348 -0.421938 -0.490648 90 84 62
-0.75348 -0.421938 -0.490648 90 84 62
-0.798036 -0.399441 -0.509606 152 129 104
-0.678008 -0.492946 -0.464542 163 134 105
-0.681226 -0.460152 -0.407659 162 154 109
-0.563006 -0.505967 -0.247718 52 63 32
-0.701296 -0.602903 -0.428377 136 106 92
-0.891611 -0.437296 -0.450095 116 76 44
-0.752203 -0.58934 -0.446618 144 54 29
-0.860616 -0.545477 -0.548335 124 78 46
-0.897447 -0.458784 -0.476532 114 18 9
-0.723226 -0.626918 -0.408604 15 9 12
-0.839366 -0.590985 -0.515671 108 86 76
-0.635883 -0.63232 -0.241799 74 49 28
-0.843933 -0.580705 -0.47928 95 80 76
-0.843933 -0.580705 -0.47928 95 80 76
-0.857587 -0.594905 -0.514354 133 114 110
-0.77823 -0.526838 -0.247528 62 31 13
-0.771062 -0.617947 -0.339987 166 138 114
-0.897572 -0.595938 -0.52358 255 248 245
-0.773917 -0.630468 -0.357038 182 158 142
-0.632801 -0.770328 -1.19038 172 134 104
-0.530095 -0.729252 -1.17721 157 122 107
-0.606656 -0.759221 -1.18149 169 113 44
-0.5796 -0.749444 -1.17669 162 107 36
-0.688144 -0.821042 -1.187 148 16 18
-0.622827 -0.777077 -1.16935 110 9 9
-0.622827 -0.777077 -1.16935 110 9 9
-0.572673 -0.741782 -1.16121 104 8 10
-0.650972 -0.799888 -1.168 96 20 14
-0.483451 -0.612731 -1.14191 103 92 100
-0.399624 -0.382693 -1.0957 162 147 126
-0.587109 -0.678487 -1.1161 159 140 123
-0.302771 -0.168788 -1.0041 78 45 26
-0.59157 -0.584711 -1.04712 133 90 70
-0.557611 -0.551896 -0.991386 174 112 90
-0.290073 -0.0598302 -0.839356 149 143 91
-0.665799 -0.649957 -1.00361 56 14 4
-0.623675 -0.577147 -0.932454 146 99 78
-0.842752 -0.644476 -1.00111 56 31 8
-0.695512 -0.798354 -0.940624 84 56 48
-0.65606 -0.774046 -0.914361 81 62 52
-0.62021 -0.453307 -0.769777 92 66 32
-0.651508 -0.814541 -0.902681 149 28 28
-0.612728 -0.796987 -0.879011 144 102 93
-0.751612 -0.847318 -0.93822 61 44 36
-0.672782 -0.733362 -0.793832 138 31 22
-0.603559 -0.746049 -0.756016 158 25 25
-0.452731 -0.706596 -0.640567 149 128 121
-0.653801 -0.78354 -0.77857 88 74 64
-0.732599 -0.826738 -0.837997 79 64 54
-0.64966 -0.773935 -0.756746 83 66 56
-0.457481 -0.642644 -0.288377 195 164 158
-0.351108 -0.623904 -0.147033 174 150 145
-0.575634 -0.752588 -1.1251 114 20 18
-0.623525 -0.59696 -1.07311 95 44 31
-0.652121 -0.469419 -1.02058 68 40 6
-0.49962 -0.638639 -0.974481 192 136 105
-0.685296 -0.663479 -0.987572 178 121 103
-0.59668 -0.634172 -0.901284 166 113 93
-0.677844 -0.788441 -0.923971 100 76 64
-0.629838 -0.694221 -0.866988 111 64 46
-0.708829 -0.791141 -0.926312 153 119 108
-0.695979 -0.732512 -0.894631 174 130 112
-0.647753 -0.825417 -0.897822 68 30 24
-0.720933 -0.736891 -0.660159 92 57 29
-0.926362 -0.626195 -0.751256 104 66 28
0.239919 0.214277 0.693893 113 89 56
-0.77209 -0.659153 -0.640942 154 124 108
-0.811651 -0.596187 -0.590827 162 138 92
-0.94039 -0.770866 -0.811815 156 140 104
-0.896222 -0.712107 -0.72077 158 146 107
-0.425176 -0.288784 -0.00679662 94 78 49
-0.862416 -0.744905 -0.705865 128 122 78
-0.919247 -0.849652 -0.826847 189 120 81
-0.929259 -0.86087 -0.843462 206 143 107
-0.883973 -0.747875 -0.713331 148 140 100
-0.909347 -0.775565 -0.752059 78 84 65
-0.986452 -0.91892 -0.92654 132 76 51
-1.01104 -0.809543 -0.865801 192 152 130
-1.05181 -0.99402 -1.03587 184 157 138
-1.00433 -0.829332 -0.851581 102 75 67
-1.00883 -0.849598 -0.869052 160 136 127
-1.02473 -0.833397 -0.871361 120 84 70
-1.01947 -0.824485 -0.851825 86 65 57
-1.01087 -0.846966 -0.859212 89 71 63
-1.0184 -0.832521 -0.8543 126 106 100
-0.966512 -0.833838 -0.803199 169 142 132
-1.01507 -0.853599 -0.861199 82 68 64
-0.92183 -0.752663 -0.678909 66 26 11
-1.02987 -0.829324 -0.852494 138 102 84
-0.961905 -0.861627 -0.806076 144 77 44
-1.0311 -0.837288 -0.852244 118 94 86
-1.02214 -0.895706 -0.888367 78 26 13
-0.965358 -0.900895 -0.827202 151 130 112
-0.965358 -0.900895 -0.827202 151 130 112
-0.960263 -0.893267 -0.813748 27 10 0
-0.935173 -0.865579 -0.761977 138 115 98
-0.942017 -0.88515 -0.784649 50 40 33
-0.9505 -0.899916 -0.806454 130 114 96
-0.960152 -0.8944 -0.811902 150 138 117
-0.968258 -0.84721 -0.773274 112 86 60
-0.97648 -0.862853 -0.795509 134 96 60
-0.983729 -0.921071 -0.856561 152 140 116
-0.940094 -0.80738 -0.704598 148 136 103
-1.01717 -0.843192 -0.820568 180 151 144
-1.0177 -0.722892 -0.709082 116 104 65
-1.01524 -0.716239 -0.689999 106 87 55
-1.01524 -0.716239 -0.689999 106 87 55
-1.01473 -0.709434 -0.668735 138 108 82
-0.959364 -0.91855 -0.80047 153 136 115
-1.01069 -0.693556 -0.641695 104 80 46
-1.04062 -0.855428 -0.821298 162 136 122
-1.03361 -0.843309 -0.78584 113 20 15
-1.03361 -0.843309 -0.78584 113 20 15
-1.03652 -0.798195 -0.718127 98 74 35
-0.442155 -0.415 -1.19815 22 28 68
-0.457844 -0.375046 -0.688381 102 64 38
-0.502294 -0.374912 -0.681713 154 145 115
-0.614327 -0.647343 -0.370783 160 127 107
-0.575792 -0.759621 -0.312384 134 106 89
-0.534148 -0.763431 -1.13158 124 12 13
-0.307061 -0.527643 -1.1295 24 14 29
-0.358282 -0.245902 -1.01996 160 146 123
-0.358282 -0.245902 -1.01996 160 146 123
