ply
format ascii 1.0
element vertex 284
property float x
property float y
property float z
property uchar red
property uchar green
property uchar blue
end_header
6.79037 -12.7843 9.85796 0 255 0
0.0584818 -2.39314 0.797999 0 255 0
0.787009 -5.91867 7.11164 0 255 0
-1.84997 0.99899 1.54909 0 255 0
-0 -0 -0 0 255 0
-0.499909 -0.37593 -0.550421 0 255 0
-0.606281 -0.396463 -0.611593 0 255 0
-0.526789 -0.278016 -0.519223 0 255 0
-0.180852 -0.387022 -0.224465 0 255 0
1.5072 -1.77665 0.401166 157 122 107
1.34555 -1.69804 0.37675 169 113 44
1.3884 -1.72766 0.373158 162 107 36
1.47326 -1.77745 0.387721 148 16 18
1.50485 -1.79911 0.403222 148 16 18
1.49126 -1.78063 0.33203 136 16 14
1.41076 -1.79138 0.3697 110 9 9
1.41076 -1.79138 0.3697 110 9 9
1.17787 -1.70892 0.459076 20 16 28
1.19444 -1.75471 0.475938 103 92 100
1.02966 -1.7267 0.588983 162 148 130
1.24405 -1.79421 0.397076 55 2 2
1.02363 -1.90909 0.5334 132 14 16
0.906518 -2.02019 0.870511 78 45 26
1.06408 -2.04563 0.671199 159 144 124
1.08736 -2.15531 0.839962 36 12 5
0.993431 -1.94307 0.545436 162 143 120
1.40854 -2.28233 0.587286 100 64 32
1.00431 -2.13655 0.640456 133 90 70
0.887098 -2.17258 0.545417 174 112 90
1.14849 -2.3089 0.334685 196 142 108
0.798949 -2.19552 0.467437 56 14 4
0.973775 -2.54554 0.56587 61 26 15
0.687509 -2.29573 0.469649 146 99 78
0.941946 -2.50976 0.215263 134 80 56
0.420752 -2.59793 0.744653 76 41 24
0.420752 -2.59793 0.744653 76 41 24
0.737843 -2.31778 -0.0281662 84 56 48
0.721629 -2.33646 -0.0464997 92 66 56
0.421441 -2.73514 0.655686 145 142 89
0.418513 -2.61882 0.53462 92 66 32
0.73161 -2.30334 -0.180703 149 28 28
0.624366 -2.27861 -0.149076 102 87 80
0.590116 -2.27119 -0.162994 61 44 36
0.974307 -2.75312 -0.22797 77 47 42
0.538312 -2.327 -0.214487 144 125 118
0.505264 -2.30181 -0.235945 82 64 57
0.500875 -2.33688 -0.24921 98 77 72
0.434184 -2.48585 -0.0905031 138 31 22
0.510199 -2.47381 -0.215857 158 25 25
0.495679 -2.46307 -0.242559 77 26 18
0.536181 -2.43621 -0.326384 149 128 121
0.473916 -2.48618 -0.257007 88 74 64
0.416499 -2.42475 -0.261883 79 64 54
0.439936 -2.51038 -0.260446 83 66 56
0.0809471 -3.16831 0.158969 84 86 46
-0.289942 -2.68769 0.287075 150 122 92
-0.320853 -2.74548 0.337573 102 66 30
-0.32985 -2.72064 0.313913 150 132 110
-0.0700626 -2.79963 0.018136 170 138 118
0.0832575 -2.95494 -0.114083 60 35 8
-0.267403 -2.64238 0.169131 91 85 72
0.082353 -2.95836 -0.146183 128 97 78
-0.0010675 -2.95282 -0.0798934 152 122 102
-0.10599 -2.84206 6.64038e-05 164 127 109
-0.113502 -2.84788 0.000397714 110 59 32
-0.379522 -2.82719 0.323604 118 96 80
-0.085573 -2.87414 -0.0419745 160 122 104
-0.210654 -2.86837 0.101185 144 140 90
-0.0863997 -2.87578 -0.0524407 110 64 39
-0.0232603 -3.04051 -0.0824728 33 12 2
0.025049 -3.20024 -0.0916251 89 70 37
-0.363146 -2.55005 0.128609 128 80 58
-0.375805 -2.54606 0.124495 102 7 4
-0.297574 -2.58952 0.041606 155 128 115
0.20618 -3.06121 -0.437822 246 226 220
0.0976917 -2.84985 -0.386028 188 140 120
0.0682187 -2.83089 -0.360539 94 52 26
0.0721029 -2.84739 -0.358286 94 52 26
-0.0564885 -3.06385 -0.130969 56 34 14
-0.120755 -3.03538 -0.0616468 60 38 16
0.140786 -2.80536 -0.475055 195 164 158
-0.0161401 -2.87502 -0.256361 180 111 82
-0.137083 -3.06951 -0.0346084 90 51 16
-0.109366 -3.07663 -0.0817952 94 77 42
-0.0122767 -2.85297 -0.300026 164 134 118
-0.0203233 -2.91142 -0.293931 42 19 8
0.164746 -2.85763 -0.557696 174 150 145
0.162865 -2.8518 -0.557744 174 150 145
0.128149 -2.84302 -0.520699 138 24 21
-0.224971 -2.89871 -0.0939214 153 124 114
0.0361237 -2.85843 -0.4546 112 64 38
-0.26238 -2.79237 -0.102317 156 127 112
-0.220712 -2.78441 -0.178438 23 16 14
-0.220712 -2.78441 -0.178438 23 16 14
0.0335848 -2.81538 -0.491035 178 152 146
-0.27461 -2.75859 -0.119306 126 12 8
-0.209348 -2.78854 -0.204957 18 10 10
-0.219728 -2.77333 -0.202568 118 108 108
-0.0150715 -2.81765 -0.477908 96 50 26
-0.00766586 -2.8225 -0.494717 190 147 127
-0.0973982 -2.90968 -0.383751 77 36 13
-0.442316 -2.56855 -0.0392035 95 70 60
-0.431099 -2.56708 -0.0554247 62 40 29
-0.499743 -3.00911 0.147261 169 125 104
-0.442366 -2.56606 -0.0480354 198 173 162
-0.636463 -2.73307 0.238025 153 145 103
-0.629248 -2.71837 0.214815 106 59 26
-0.486726 -2.53707 -0.0310348 68 48 41
-0.457534 -2.56614 -0.0671759 168 149 142
-0.314145 -2.79466 -0.195697 90 33 14
-0.425761 -2.61206 -0.101684 156 136 128
-0.643914 -2.73302 0.191087 117 64 34
-0.466026 -2.57023 -0.0749031 67 53 46
-0.477795 -2.58233 -0.0697376 158 140 133
-0.455147 -2.62177 -0.0980116 76 62 57
-0.479656 -2.60234 -0.0740469 64 50 42
0.0191741 -2.88065 -0.653184 128 99 86
-0.26348 -2.84079 -0.310701 159 94 68
-0.4096 -3.0479 -0.0945654 59 23 5
-0.693308 -2.7571 0.193323 98 64 26
-0.662694 -2.73774 0.14563 18 8 3
-0.489503 -2.58142 -0.114537 95 76 70
-0.28951 -2.87729 -0.319673 177 146 127
-0.66563 -2.72123 0.122414 158 126 96
-0.321579 -2.83638 -0.296784 144 76 40
-0.363082 -2.86481 -0.246212 24 4 2
-0.363082 -2.86481 -0.246212 24 4 2
-0.277417 -2.873 -0.360029 54 18 2
-0.369769 -2.87211 -0.253006 154 96 73
-0.383417 -2.87466 -0.247869 75 50 42
-0.249161 -3.0466 -0.399967 32 27 22
-0.249161 -3.0466 -0.399967 32 27 22
-0.452006 -3.04381 -0.144258 19 7 2
-0.457859 -3.03217 -0.139323 12 10 8
-0.0593864 -2.94644 -0.661597 167 138 116
-0.392756 -2.88027 -0.252952 163 126 104
-0.662855 -2.65617 0.0433421 46 39 22
-0.473724 -2.96184 -0.146194 154 113 96
-0.524501 -2.61129 -0.156031 128 23 19
-0.378879 -2.83969 -0.315002 48 34 22
-0.231243 -3.09863 -0.55464 103 63 29
-0.570207 -2.68621 -0.211987 152 134 124
-0.573413 -2.70291 -0.219971 191 166 153
-0.63877 -2.64178 -0.1631 106 62 35
-0.726471 -2.76611 -0.061265 138 112 91
-0.634312 -2.77384 -0.217133 56 28 18
-0.70932 -2.76257 -0.132401 104 64 32
-0.757543 -2.88455 -0.0758765 158 136 112
-0.757543 -2.88455 -0.0758765 158 136 112
-0.79049 -2.95146 -0.0419614 94 62 24
-0.79049 -2.95146 -0.0419614 94 62 24
-0.801955 -2.96891 -0.0298942 96 62 24
-0.784978 -2.93319 -0.05897 158 138 113
-0.729603 -2.81353 -0.161014 111 82 58
1.20743 -1.60851 0.622317 120 22 13
1.10036 -1.56167 0.623654 143 43 29
0.983632 -1.6484 0.641774 116 14 12
1.32105 -1.87684 0.289604 114 20 18
1.16619 -1.89597 0.476185 160 140 124
0.994189 -2.0806 0.689883 95 44 31
0.763038 -2.25634 0.960394 68 40 6
0.751759 -2.25396 0.439485 178 121 103
0.769743 -2.56612 0.687559 80 31 7
0.845055 -2.51598 0.340022 166 113 93
0.618814 -2.72598 0.470647 170 150 126
0.664298 -2.42765 0.104036 111 64 46
0.705819 -2.41415 -0.00240168 153 119 108
0.632046 -2.48193 0.117749 174 130 112
0.442153 -2.44862 -0.229156 150 131 116
0.111029 -2.64731 -0.245922 92 57 29
-0.331673 -2.78277 0.378494 104 66 28
0.10106 -2.97038 -0.12149 113 89 56
-0.0291678 -2.85892 -0.0112559 154 124 108
-0.273609 -2.61984 0.0833319 179 145 130
-0.202802 -3.01719 0.127194 162 138 92
-0.250223 -2.75149 0.0669516 156 140 104
0.185377 -2.98822 -0.438381 251 236 230
-0.243788 -2.97406 0.0832095 158 146 107
-0.0765979 -3.16626 -0.0839946 94 78 49
-0.143547 -2.99326 -0.071965 128 122 78
-0.107606 -2.78471 -0.204063 189 120 81
-0.102788 -2.79963 -0.20608 206 143 107
-0.306228 -2.6057 -0.0332404 164 148 105
-0.208863 -2.94417 -0.0627832 148 140 100
-0.441053 -2.43314 0.0382785 158 116 91
-0.128234 -2.80013 -0.231392 132 76 51
-0.142125 -2.62273 -0.31714 184 157 138
-0.430366 -2.60385 -0.03683 102 75 67
-0.49539 -2.55196 -0.0169643 86 65 57
-0.442179 -2.59269 -0.0848873 89 71 63
-0.485732 -2.56025 -0.0406644 126 106 100
-0.455569 -2.6031 -0.101567 82 68 64
-0.385684 -3.06686 -0.0998321 66 26 11
-0.537769 -2.55655 -0.024185 138 102 84
-0.491999 -2.56876 -0.0876522 192 173 170
-0.3105 -2.8968 -0.255299 144 77 44
-0.0550094 -2.88838 -0.593873 140 105 90
-0.489425 -2.59237 -0.112294 111 92 86
-0.542563 -2.54906 -0.0563305 118 94 86
-0.415181 -2.95377 -0.164248 78 26 13
-0.427466 -2.65624 -0.204085 78 26 13
-0.25626 -3.05115 -0.37355 151 130 112
-0.25626 -3.05115 -0.37355 151 130 112
-0.264552 -3.05565 -0.368439 27 10 0
-0.262528 -3.1399 -0.3572 138 115 98
-0.238737 -3.25501 -0.378164 30 20 12
-0.238737 -3.25501 -0.378164 30 20 12
-0.230717 -3.08488 -0.418973 130 114 96
-0.261019 -3.13128 -0.373325 150 138 117
-0.400942 -2.91121 -0.25713 112 86 60
-0.395504 -2.85359 -0.277174 134 96 60
-0.240029 -3.41176 -0.380618 152 140 116
-0.524712 -2.63309 -0.152167 128 24 18
-0.398242 -3.20483 -0.22073 148 136 103
-0.2594 -3.13147 -0.406171 85 68 32
-0.532554 -2.62229 -0.149103 180 151 144
-0.700733 -2.94721 0.103782 116 104 65
-0.719389 -3.03221 0.102431 106 87 55
-0.719389 -3.03221 0.102431 106 87 55
-0.743211 -3.06014 0.0851896 138 108 82
-0.277781 -3.1086 -0.515303 153 136 115
-0.760296 -3.10304 0.0873573 104 80 46
-0.628866 -2.59273 -0.18329 162 136 122
-0.651677 -2.67686 -0.20324 113 20 15
-0.651677 -2.67686 -0.20324 113 20 15
-0.754852 -2.82646 -0.148445 98 74 35
1.47737 -1.76373 0.356688 146 27 18
-0.0278748 -2.89751 -0.369848 160 127 107
0.0138133 -2.94588 -0.66384 134 106 89
0.950729 -1.65573 0.660008 164 148 126
1.35406 -1.82197 0.403369 121 62 18
1.04398 -2.10037 0.941389 161 150 126
0.771291 -2.09515 0.928422 50 22 12
0.737304 -2.15744 0.906538 40 10 1
0.737304 -2.15744 0.906538 40 10 1
0.813415 -2.33967 0.788549 93 54 25
0.832638 -2.51329 0.746703 94 58 24
0.698246 -2.33074 0.486048 72 26 8
0.928129 -2.59405 0.14011 126 76 52
0.437502 -2.58898 0.435533 158 146 116
0.591858 -2.28515 -0.172936 76 62 62
0.596555 -2.29151 -0.18869 132 114 109
0.434235 -2.54181 -0.251846 92 72 58
-0.0428387 -2.82887 -0.0128961 56 27 7
-0.334658 -2.54693 0.141016 156 122 105
-0.334844 -2.55171 0.141912 156 122 105
-0.0907018 -3.05656 -0.126076 158 148 124
-0.254344 -2.72947 -0.146777 140 70 46
-0.357593 -2.64728 -0.0701464 131 83 57
-0.482861 -2.54153 -0.00112115 122 90 77
-0.0945903 -2.90135 -0.373571 140 111 100
-0.038924 -2.87974 -0.460127 158 128 117
-0.563031 -2.57344 0.0139591 10 11 13
-0.484445 -2.5796 -0.0913234 86 70 66
-0.26312 -2.84331 -0.310332 161 96 72
0.0322478 -2.96575 -0.662299 129 100 85
-0.0191529 -2.93143 -0.636939 193 166 145
-0.0519586 -2.91807 -0.615364 194 164 150
-0.351049 -2.83537 -0.307358 140 100 75
-0.351049 -2.83537 -0.307358 140 100 75
-0.333604 -2.92146 -0.348556 130 70 40
-0.477415 -3.081 -0.178385 118 76 37
-0.371173 -2.92457 -0.363705 136 88 63
-0.583523 -2.63638 -0.165226 154 134 126
-0.58118 -2.65863 -0.253724 156 143 104
-0.677678 -2.7909 -0.183439 97 97 77
-0.783348 -2.91443 -0.0633753 159 137 110
-0.80958 -2.95894 -0.0562441 155 148 95
-0.80215 -2.93563 -0.105154 146 144 92
1.0047 -2.1069 0.929502 160 146 123
0.837572 -2.53285 0.785207 164 152 125
0.639202 -2.2724 -0.17076 130 113 108
0.486338 -2.34258 -0.0456586 140 84 65
0.0124795 -2.8875 -0.0534119 160 118 92
-0.190242 -2.95283 -0.389546 114 88 72
-0.190242 -2.95283 -0.389546 114 88 72
-0.0791862 -2.8833 -0.562306 129 94 82
-0.0952574 -2.89472 -0.582615 150 90 66
-0.38904 -2.84311 -0.312523 174 150 130
1.05669 -1.55188 0.676393 150 16 20
1.42572 -1.75199 0.352525 138 12 12
1.08602 -1.82512 0.591307 134 93 34
0.7985 -2.64413 0.772282 97 62 27
-0.480976 -3.03742 -0.159215 34 16 4
