ply
format ascii 1.0
element vertex 51
property float x
property float y
property float z
property uchar red
property uchar green
property uchar blue
end_header
4.85001 8.50159 -17.2123 0 255 0
-2.69834 1.92651 -0.769109 0 255 0
0.214814 0.735059 13.4324 0 255 0
-0.593146 -2.5852 -30.1995 0 255 0
-0.362908 -0.0466949 -0.727834 0 255 0
0.0655429 -2.10071 0.146196 0 255 0
23.0384 27.1163 30.3565 0 255 0
299.384 70.306 -948.138 0 255 0
1.59542 -0.44762 -1.00075 0 255 0
-11.1891 12.301 66.3934 0 255 0
-20.5831 188.04 -594.804 0 255 0
1.34096 -0.462338 -0.823344 0 255 0
2.59422 0.321088 -1.88004 0 255 0
-575.189 1217.7 1134.09 0 255 0
2.47593 -9.94823 -2.96613 0 255 0
-1.22832 -8.7892 2.4507 175 136 104
-2.90328 -2.97293 0.749291 142 102 80
-3.02525 -1.7183 0.389099 198 156 152
-2.92499 0.687658 -0.327192 148 111 110
-2.83406 1.27948 -0.530907 68 36 32
-2.7935 1.49682 -0.608672 160 118 116
-2.69834 1.92651 -0.769109 170 130 122
-1.18691 0.180317 0.289157 158 137 121
2.07058 -3.57253 3.16108 58 66 48
1.02091 -1.6018 0.524762 76 78 56
0.782946 0.694975 -0.728148 90 68 56
4.19345 2.18116 -4.08176 100 92 63
-2.24814 -5.44799 -0.199011 84 72 60
2.03921 -0.747569 -1.4085 126 128 91
-1.47985 -4.86524 1.24323 128 110 86
-2.74451 -3.29991 1.8873 74 67 36
-2.73475 -3.25147 1.88824 69 58 32
0.128395 -7.64513 1.20913 135 102 57
0.128395 -7.64513 1.20913 135 102 57
-2.6057 0.0450259 0.253374 134 135 105
-2.89915 -0.615882 0.360464 47 40 21
-2.86714 -0.342534 0.572855 156 156 128
-2.6178 -2.68428 2.91345 102 87 71
-3.42824 -5.51801 0.682088 42 14 9
0.0518565 -2.08198 0.150152 146 140 82
-3.51387 -6.50666 2.87805 44 42 18
-6.32156 -6.66167 2.7784 46 52 36
-8.60402 -6.97835 2.94544 50 42 17
1.36939 -0.699057 -0.863914 69 73 35
1.55541 -0.461669 -0.978916 152 158 104
0.748796 -0.823902 -0.347127 153 158 104
-0.0334605 -2.72827 0.0592343 148 136 112
-1.30074 -3.70584 0.697514 91 69 43
-0.248525 -5.7176 0.380023 50 40 18
-0.201761 -5.22943 0.703319 98 86 67
-0.625859 -4.56447 1.23341 100 92 84
