ply
format ascii 1.0
element vertex 594
property float x
property float y
property float z
property uchar red
property uchar green
property uchar blue
end_header
-0.195361 0.400269 -17.7568 0 255 0
-1.39969 2.43305 -16.6488 0 255 0
-2.10942 4.24533 -15.77 0 255 0
-3.18011 6.5016 -15.1425 0 255 0
0.126521 5.13358 -15.8932 0 255 0
2.49861 0.397861 -17.515 0 255 0
-0.745717 -2.75156 20.108 0 255 0
-6.55743 -5.12144 -14.7463 0 255 0
-8.77371 -0.991163 -13.4516 0 255 0
-10.1086 2.58663 -12.8223 0 255 0
-5.56527 -6.41193 -14.7697 0 255 0
0.650454 -9.29073 1.75199 154 126 34
0.666207 -8.79281 2.07268 51 62 2
0.356995 -8.39185 1.47738 166 170 164
0.822989 -8.4895 2.19998 164 150 17
-0.30483 -8.66332 1.93532 22 62 44
-3.46823 -8.39234 -2.40804 152 151 122
-3.4536 -8.4149 -2.39675 152 151 122
0.747235 -8.13346 2.40926 166 145 26
-3.28484 -8.17792 -1.95848 157 122 2
-3.34878 -7.97257 -1.8867 137 146 126
-0.146701 -8.06731 2.88523 16 58 40
-3.47439 -7.89376 -1.99858 154 108 30
-3.6341 -7.88238 -2.13622 161 132 104
0.553529 -7.42772 3.0371 150 152 62
0.0228071 -7.55113 3.02459 12 33 21
-4.737 -8.33573 -1.85541 54 60 63
-2.89574 -7.25867 -1.14813 167 136 92
0.33465 -7.21617 3.33589 12 62 109
-2.94835 -7.20716 -1.10698 166 138 104
-3.12446 -7.1052 -1.13715 170 142 111
-3.17533 -6.73306 -0.924995 188 160 141
-1.76831 -6.46014 2.14478 36 108 136
-2.82311 -6.66477 1.09669 57 97 79
-2.49655 -6.48807 2.2797 13 11 13
-2.4203 -6.36271 1.90818 13 11 13
-3.57873 -6.00482 -0.651191 22 56 40
-3.70503 -5.94933 -0.717273 154 136 100
-3.57242 -5.75178 -0.158543 38 82 73
-4.07254 -5.82726 -0.957542 184 142 126
-3.5034 -6.03847 1.90464 174 166 170
-3.88863 -5.38502 -0.418335 168 168 150
-4.00557 -5.56622 0.563579 36 34 38
-0.887798 -2.66053 2.8269 56 34 15
2.99436 -0.292684 1.84584 96 82 78
-5.55364 -4.41317 -0.105739 35 28 34
0.601348 -1.23686 1.7671 70 45 17
-0.0300763 -1.57297 2.20262 77 49 24
2.09171 0.0191948 0.919733 149 134 121
0.711533 -0.884738 1.68451 152 152 134
0.652919 -0.596365 1.71277 148 96 96
2.45411 0.311691 1.54906 87 76 68
0.68844 -0.469785 1.67214 138 106 84
0.366995 -0.602228 1.88627 188 170 122
-0.00137112 -0.793763 2.1196 118 72 44
-0.000886426 -0.794499 2.1209 118 72 44
-1.486 -1.65563 3.78096 188 183 188
0.496596 -0.488692 1.80242 174 156 133
0.725941 -0.232725 1.64014 171 141 92
0.00477616 -0.615648 2.08585 190 138 95
-3.84469 -2.6882 5.72966 103 72 33
2.35917 0.62462 1.70707 222 222 224
0.730812 -0.13023 1.66111 91 57 14
0.270316 -0.347939 1.92822 148 112 68
0.26689 -0.281286 1.93868 164 130 89
1.60084 0.370731 1.10096 64 36 17
0.614398 -0.0967389 1.69465 184 168 128
1.72383 0.532593 1.38549 54 40 32
0.190729 -0.208262 1.9677 204 166 126
-0.344785 -0.454772 2.33234 214 180 138
-0.344785 -0.454772 2.33234 214 180 138
-4.02811 -2.30217 4.73608 87 56 20
0.0585835 -0.0213186 2.07745 185 172 124
-0.229074 -0.153317 2.2288 174 138 105
1.63826 0.900192 1.04116 52 28 7
0.019158 0.137076 2.05471 187 170 131
1.68204 0.979344 1.01222 133 102 52
0.0741878 0.234488 2.02265 156 138 110
1.68473 1.06883 0.984042 102 68 16
0.702823 0.597725 1.64106 72 36 4
-2.29255 -0.861951 3.57603 89 52 16
-3.57728 -1.40555 4.37468 175 132 107
-3.77318 -1.44217 4.42985 150 91 72
0.99683 0.953365 1.41794 70 34 0
-2.63894 -0.778953 3.77908 80 46 12
-4.23149 -1.56056 4.80707 210 132 95
-3.1603 -0.896866 4.08826 118 108 101
1.35298 1.33898 1.17187 93 56 10
1.35299 1.34128 1.18547 93 56 10
-2.20248 -0.317399 3.47235 187 156 122
-0.120124 0.776833 2.11191 200 162 113
0.0373779 0.855834 2.01454 191 152 108
1.84424 1.71337 0.848287 150 119 56
1.06392 1.36115 1.36712 86 52 12
-0.403038 0.674316 2.29347 134 95 50
-2.14998 -0.0600312 3.39766 164 114 82
-2.02076 0.0283324 3.33464 168 114 82
-0.208128 0.917425 2.12671 144 105 66
0.134323 1.08414 1.93761 199 168 132
1.48697 1.7334 1.04963 94 62 28
0.0225289 1.10656 2.00038 121 86 72
-2.71923 -0.139116 3.79766 200 167 131
-1.58286 0.434196 3.06671 202 160 112
-4.06093 -0.682297 4.65122 179 134 98
-3.44679 -0.355017 4.28094 214 191 162
0.837799 1.64173 1.46316 164 140 114
-0.555703 1.03662 2.3709 220 150 106
1.72396 2.10671 0.854194 163 132 94
-3.33464 -0.218187 4.25057 209 188 160
-0.748961 1.00775 2.49528 211 180 198
-0.838674 0.996397 2.532 118 82 116
-0.434332 1.19202 2.29459 222 149 112
-1.67543 0.644307 3.05707 205 164 116
-3.15902 0.0164936 4.01105 214 178 154
1.57215 2.13006 0.98043 110 90 60
1.48815 2.14217 1.01508 158 140 106
-1.84282 0.742664 3.20227 204 164 115
-1.66417 0.847076 3.09153 132 96 72
0.567224 1.83633 1.61677 159 147 166
0.566197 1.83597 1.61564 159 147 166
-2.18678 0.65615 3.41855 192 156 108
-1.46533 0.988133 2.93838 142 114 103
1.39308 2.27325 1.08855 169 150 112
1.59754 2.37683 1.01242 148 140 132
-3.40902 0.189894 4.19546 157 120 81
-2.92217 0.416892 3.90936 143 100 68
-4.14127 -0.099533 4.66835 168 138 135
0.170816 1.78558 1.88106 187 168 110
-1.61263 1.01211 3.05376 200 168 138
-0.479663 1.537 2.28394 204 182 174
0.615159 2.02064 1.57641 182 172 178
0.79951 2.14556 1.45526 167 152 141
-4.96605 -0.30871 5.19175 72 42 40
-1.99796 0.975002 3.2999 162 122 70
-4.52036 -0.105126 4.90527 85 46 42
-4.18737 0.0798974 4.69175 119 79 60
-2.21047 0.935235 3.41753 163 118 78
1.03743 2.33653 1.29704 204 179 100
0.738623 2.21897 1.48333 116 100 108
-4.09134 0.239534 4.48867 130 90 60
1.08685 2.3953 1.23596 133 110 56
-3.76505 0.326317 4.41266 144 117 93
-3.99235 0.267714 4.54141 167 116 96
0.326471 2.09943 1.7605 197 172 171
1.30105 2.51856 1.11531 126 124 99
0.170456 2.15589 1.84303 224 194 158
0.740412 2.44053 1.4899 125 101 100
-0.162171 2.06501 2.07432 125 92 76
1.17315 2.6362 1.18751 182 170 130
-4.22971 0.379847 4.69489 164 144 140
0.322968 2.28933 1.72716 126 100 87
-4.46188 0.3 4.84534 192 138 108
-2.53526 1.11237 3.59793 150 100 64
-4.38379 0.35894 4.81298 128 82 65
1.01875 2.61647 1.28914 92 75 53
-3.76272 0.655801 4.35114 201 170 125
1.20765 2.74992 1.16201 117 101 82
-0.39855 2.08149 2.22552 217 148 108
-3.37583 0.965788 3.31263 204 159 119
-2.27743 1.41895 3.44151 202 166 119
0.625852 2.67656 1.58341 128 100 52
-3.89928 0.88302 4.53163 106 72 26
0.923 2.84615 1.34472 122 106 74
-0.429039 2.33278 2.26186 144 109 60
0.475788 2.73087 1.64943 119 92 55
1.09445 2.96073 1.23386 186 174 174
0.21243 2.61631 1.80088 114 99 62
0.00531853 2.5415 1.94481 220 193 148
0.29375 2.68784 1.75092 148 136 95
-2.48542 1.66198 3.58388 84 54 20
-0.432149 2.46656 2.22681 209 170 124
0.352475 2.78059 1.63674 177 164 145
-0.185113 2.60338 2.05789 182 166 88
0.639624 3.11352 1.52451 105 83 49
-0.0708413 2.84463 1.98057 126 100 60
1.18966 3.33337 1.14766 104 90 58
-1.48331 2.33477 2.88265 121 91 72
-1.01049 2.58789 2.57722 198 166 122
-3.00301 1.82647 3.7605 140 106 50
-0.841788 2.68769 2.49231 202 168 138
0.216782 3.09938 1.77625 110 82 66
0.221834 3.09929 1.78039 110 82 66
-5.88707 0.765186 5.74273 98 74 42
-2.94742 1.9286 3.84889 130 101 50
-0.291182 3.13924 2.13399 154 120 54
-1.42067 2.74586 2.84016 130 94 82
0.742402 3.61766 1.41416 136 113 104
1.06003 3.8062 1.23496 107 72 16
0.829586 3.74775 1.35902 182 156 128
-1.56654 2.87636 2.91684 132 97 88
-0.563372 3.33331 2.30099 156 124 57
0.564539 3.79571 1.55186 76 42 4
0.26075 3.74297 1.76115 152 120 52
0.733826 3.96401 1.42431 97 62 11
-0.479969 3.68848 2.22357 84 51 8
-0.47962 3.68671 2.20923 84 51 8
-1.84297 3.30647 3.0563 148 120 88
0.0232239 3.97404 1.94322 66 39 18
-1.95469 3.32032 3.12976 197 166 140
0.336082 4.12355 1.70734 150 118 54
-0.171848 3.9592 2.02039 140 106 54
-0.498173 3.88494 2.22557 106 72 16
-0.237341 4.01541 2.05359 147 112 49
0.547188 4.31878 1.57339 152 118 53
-3.12781 3.10652 3.89391 93 62 20
-2.07211 3.49257 3.20941 204 164 128
-1.22413 3.80672 2.67657 170 152 138
-1.47503 3.71599 2.80695 172 148 136
-1.38362 3.82998 2.80684 96 74 90
0.653823 4.53648 1.51026 62 40 28
-0.294728 4.22593 2.10925 154 122 52
-1.39806 3.86124 2.76331 100 83 99
-3.88418 3.12395 4.37386 144 113 56
-1.52748 3.89632 2.85573 180 142 128
-1.56253 4.03089 2.84888 188 166 159
-0.268331 4.47076 2.07935 152 122 60
-0.184002 4.51318 1.99552 46 26 12
-0.375458 4.61746 2.18528 159 127 52
-3.53298 3.649 4.14752 143 112 57
0.35424 5.18079 3.1689 91 77 62
-0.20118 4.74481 2.30704 52 31 17
-1.70842 4.23762 2.97106 186 180 167
-1.82412 4.20572 3.02798 126 125 126
-3.22896 3.84431 3.9797 134 106 51
-1.2242 4.48436 2.75413 121 90 48
-1.74115 4.34688 2.96436 131 106 88
-1.60854 4.39171 2.89362 200 172 142
-0.8982 4.63816 2.47061 70 38 10
0.368753 5.41137 3.29026 93 78 68
-2.77798 4.21572 3.67084 84 60 38
0.223963 5.57468 3.38996 97 82 70
-0.307735 5.04063 1.79936 74 52 34
-0.111519 5.32164 2.78826 120 104 88
-0.801625 4.93801 2.4218 88 54 9
-2.14894 4.58189 3.24611 75 52 30
-1.17097 4.91032 2.61804 128 96 44
-1.80704 4.81003 3.02894 60 38 18
-0.550387 5.3283 2.25921 98 64 20
-0.547801 5.32539 2.22213 98 64 20
-0.262705 5.48562 2.13605 86 74 64
-0.669753 5.45811 2.32992 111 84 46
-0.495543 5.51023 2.10599 138 110 65
-5.1776 -1.63134 5.38104 190 181 182
-3.31147 0.934395 4.09837 198 161 116
-0.143579 4.14713 2.023 45 24 12
-0.518988 0.422934 2.38633 170 126 110
-3.0405 -6.19307 0.730902 114 115 118
-1.79122 -1.20285 3.2871 120 92 51
-2.99733 -9.01546 -1.72284 130 120 104
-4.53507 -8.87313 -2.64466 150 147 141
-3.35314 -8.34851 -2.20025 68 74 54
-4.10225 -8.3062 -2.57476 22 22 26
-3.56597 -8.04555 -2.07395 62 48 30
-3.61772 -7.81089 -2.23677 156 134 106
-4.76616 -7.78175 -2.62385 18 18 19
-3.20801 -7.66534 -1.4517 8 46 30
-3.15127 -6.91164 -1.18055 102 67 66
-3.47969 -6.80794 -1.14773 159 146 140
-3.65837 -5.98087 -0.684302 151 149 127
-3.78914 -5.82278 -0.752125 161 117 42
-3.95648 -5.53237 -0.821574 92 60 48
-3.77226 -5.46786 -0.501801 144 146 134
-5.14534 -5.74351 -0.959559 15 15 16
-4.57746 -5.0725 0.24234 164 159 159
-4.93552 -4.37341 -0.0792874 138 30 36
-4.93552 -4.37341 -0.0792874 138 30 36
-5.35879 -4.14804 -0.0973368 176 162 162
-4.85918 -1.99796 5.23073 60 40 20
-3.7629 -1.08114 4.4736 194 122 108
-4.69253 -1.34135 5.04301 158 100 78
-4.46614 -1.06721 4.9451 88 46 38
-1.70146 0.324515 3.15801 160 116 66
-1.24011 0.592759 2.82638 129 93 48
-3.8267 -0.611965 4.48453 106 70 38
-3.82653 -0.611197 4.49485 106 70 38
-3.69408 -0.226885 4.40276 146 100 66
-4.02301 -0.227964 4.59292 133 76 58
-0.299517 1.95868 2.17586 126 90 62
-2.24832 1.3084 3.39628 201 162 112
-4.93113 0.174625 5.13431 158 114 98
-5.0967 0.103342 5.24679 178 136 121
-0.729246 2.13824 2.46116 214 134 98
0.180531 3.00585 1.85262 177 158 138
-5.88972 0.76012 5.75774 100 76 41
-1.0357 3.70721 2.58142 118 86 36
-2.30177 3.27712 3.35969 124 87 68
-3.67289 3.67169 4.24318 42 29 18
0.987281 -9.63894 1.91132 118 50 12
0.636473 -7.93335 2.73008 104 54 6
-0.140418 -7.02878 3.56525 16 64 40
3.23855 -0.447929 1.69968 226 226 228
-1.04503 -0.332723 2.79963 54 25 3
-0.0866775 0.466042 2.10719 170 162 123
-3.14727 -0.770845 4.10901 171 133 94
0.136173 1.08234 1.94722 188 155 118
0.133062 1.08279 1.94509 188 155 118
-3.71758 -0.735269 4.42562 102 77 56
-2.76418 0.192133 3.79913 142 98 62
-1.5026 0.827712 2.99505 100 66 55
0.251396 1.82355 1.86058 134 108 64
-4.94064 -0.211447 5.1457 62 34 34
0.517831 2.42816 1.57722 194 163 118
-1.10577 1.8711 2.74114 186 134 120
0.316968 2.98111 1.72271 96 70 47
1.13003 3.44963 1.21652 89 73 55
-1.00723 2.58969 2.58692 184 147 106
0.50722 3.32534 1.55824 168 142 116
0.727153 3.96529 1.40249 84 52 10
-1.18868 3.42281 2.66624 126 69 60
-1.17842 3.62754 2.64504 187 160 136
-0.0216615 4.04618 1.91671 104 88 70
-2.40098 3.70304 3.39776 97 61 48
0.488881 5.35077 3.36382 214 213 214
0.46128 5.35741 3.33338 214 212 212
-0.65281 3.68079 -8.54954 218 218 218
-3.54694 -9.42596 -1.34567 32 32 31
0.585864 -8.72374 2.30224 147 152 101
-1.75968 -8.02119 0.900153 108 106 112
-0.0460111 2.05089 1.98229 118 87 54
0.271239 2.38997 1.75012 138 106 68
-3.8043 0.703463 4.42066 204 174 132
-2.13845 1.48976 3.47621 188 148 96
-0.00929305 3.00986 1.93715 168 132 104
-1.5973 2.43833 2.95971 119 86 62
0.950947 3.7484 1.26844 154 138 138
-1.06684 3.85429 2.58434 105 74 28
0.662953 4.52592 2.68843 52 33 22
-0.313478 5.21172 2.23058 67 42 23
0.18973 -0.396178 1.9768 198 162 120
0.523333 0.0741381 1.76665 194 180 143
1.06205 1.3656 1.36643 86 51 12
1.62504 1.79503 0.933422 98 66 29
1.24555 2.71227 0.68377 153 137 103
-1.18064 3.30184 2.61427 220 158 144
-0.310136 5.12862 2.14363 78 52 28
0.73701 -0.778042 1.67885 108 92 88
0.513605 -0.713189 1.79558 130 116 91
-0.118864 -1.00818 2.21609 182 134 96
0.585455 -0.571087 1.74878 116 94 102
1.65618 0.219506 1.05758 124 89 48
-0.0587927 -0.704901 2.17454 187 136 90
-3.21051 -2.40159 4.2427 41 26 16
1.38384 0.682629 1.01298 66 36 11
-3.13839 -1.77041 4.16475 70 37 8
-2.35719 -1.12871 3.64182 88 52 17
-5.01094 -0.423204 5.21995 64 36 34
1.23837 2.53803 1.16286 166 154 134
-5.11119 0.791541 5.24336 90 59 15
-4.37692 1.43018 4.72427 186 180 170
-1.9278 3.21809 3.12543 168 146 114
-3.42436 3.72885 4.08537 146 117 54
0.309165 -9.12297 1.91702 26 65 44
1.73705 -1.11687 1.23422 112 84 50
1.05098 -1.48267 1.52225 110 82 44
-0.118379 -1.00477 2.19847 181 133 98
-2.3568 -0.275093 -4.74995 142 136 139
-3.49356 -0.918525 4.25996 192 146 103
1.46777 1.64756 1.10149 142 109 52
-1.78164 0.594403 3.17932 163 121 66
0.654483 1.93787 1.57226 117 94 84
-4.9391 -0.214844 5.12275 62 34 37
-0.498296 3.88482 2.22497 110 72 14
-1.2845 5.10481 2.61547 71 45 16
0.322643 1.35275 1.81574 110 74 54
-2.59178 -0.0154278 3.7347 146 103 66
1.16741 1.84204 1.2367 78 56 36
0.540943 1.57259 1.64426 104 75 86
0.0879433 1.35426 1.96402 196 154 104
-0.305675 1.23507 2.2499 209 138 94
-0.901817 1.54517 2.57344 206 196 178
0.52307 2.42902 1.60723 202 173 124
-0.656184 4.24081 2.32727 110 74 19
-0.359354 4.36151 2.14156 100 64 12
-4.22675 0.385972 4.68525 156 144 142
-1.00351 -8.33248 0.652764 108 110 114
0.602373 0.822185 1.6339 104 71 32
2.07607 1.80378 0.6884 72 42 10
-2.44091 -0.503798 3.63226 158 118 79
1.91515 2.04788 0.717998 66 40 17
0.419178 1.58231 1.71816 112 79 60
1.89956 2.48413 0.749018 76 46 10
0.295081 1.8275 1.7819 178 144 116
1.35045 2.41227 1.077 162 152 150
-1.06246 1.27835 2.68271 126 95 79
-1.19885 1.23257 2.76693 186 164 148
-0.900823 1.53926 2.57298 199 182 162
-0.135913 1.9407 2.06757 172 132 94
1.58993 2.87199 0.929245 73 46 29
1.58993 2.87199 0.929245 73 46 29
-1.59556 1.27668 2.98288 102 79 64
-4.62178 -0.201787 4.94314 177 106 86
0.292879 2.689 1.7474 127 115 82
1.13311 3.23073 1.16112 168 164 92
-2.81911 1.52183 3.80455 78 45 10
-6.00321 0.80499 5.84659 188 180 177
-1.65445 3.25546 2.95875 167 138 117
0.219844 4.12094 1.86462 42 27 18
-2.54428 3.11767 3.52346 94 60 29
-1.48856 3.59853 2.83472 135 109 88
0.54828 4.34639 2.98719 102 90 85
-1.53645 3.81497 2.88321 120 80 68
-1.67687 4.13411 2.90906 154 144 121
-4.08142 3.39252 4.56075 59 40 27
-1.13744 4.78755 2.62796 72 42 12
-1.35273 5.08539 2.72285 62 39 22
-4.4972 -1.91903 4.96814 160 116 90
-4.68067 -1.94763 5.19933 96 61 24
-2.62984 -0.728315 4.0371 170 130 90
-3.32252 -0.952004 4.1879 84 44 32
-3.32312 -0.95141 4.19639 84 44 32
-1.07836 0.310801 2.72704 86 52 20
-4.45278 -1.05811 4.90802 90 46 35
-2.64913 0.148219 3.74192 193 168 138
-0.8258 1.15104 2.57031 136 107 92
-0.709764 1.67498 2.43375 190 170 152
1.59018 2.87348 0.923522 71 43 22
1.57307 3.16307 0.929036 76 44 15
-4.37463 0.365236 4.78427 132 88 70
-0.365274 3.01227 2.14936 76 44 10
-0.366643 3.00835 2.20083 76 44 10
-4.70289 1.26912 4.82101 84 62 39
-1.07557 2.92505 2.61669 222 196 182
-0.492705 3.19614 2.24598 68 36 8
-0.49434 3.19832 2.23674 68 36 8
-4.42216 1.52932 4.68938 191 192 200
-0.0754815 3.9666 1.93519 58 37 22
-0.0754815 3.9666 1.93519 58 37 22
-0.178114 4.40298 1.99536 41 22 8
0.236485 5.60069 3.21031 91 78 68
1.93736 2.03785 0.796177 74 44 14
1.79637 2.22113 0.840345 154 124 93
-0.545212 2.53946 2.28057 140 109 86
-4.03212 1.51099 4.50868 82 56 28
1.15259 3.94627 1.2045 103 69 20
0.409044 4.77299 2.06386 88 75 64
0.0235015 1.60432 1.96735 174 136 88
0.02332 1.60198 1.96391 174 136 88
0.640119 2.25365 1.55248 112 85 81
0.36227 2.6935 1.70664 80 72 40
-4.66286 1.19504 4.93643 128 104 58
-3.95013 3.04481 4.43196 59 42 22
0.170719 0.656952 1.9549 111 80 38
0.891171 1.18941 1.47582 88 54 13
0.891171 1.18941 1.47582 88 54 13
-1.21842 3.10939 2.7038 180 128 118
-1.21882 3.10778 2.70353 180 128 118
-4.04449 3.15523 4.5279 74 50 28
-3.07723 3.9271 3.89479 132 100 40
0.946419 -9.30863 1.92158 156 142 14
-2.41687 0.377594 3.57734 130 88 42
1.36442 2.39297 1.14877 164 152 140
0.980214 2.40181 1.34347 118 94 58
0.00910958 2.1202 1.9652 158 136 76
-0.604263 3.56841 2.3226 126 92 36
-1.4472 4.56324 2.76859 115 86 69
-2.06447 4.6694 3.21068 53 37 20
-1.19824 1.23245 2.75933 198 180 168
-3.31233 -8.68597 -0.447654 10 54 34
-2.98543 -6.98524 -1.17248 115 60 41
-1.13343 -7.48583 0.914792 130 136 144
-1.61829 -6.97793 0.775147 22 56 42
-3.76759 -5.55027 -0.831926 125 104 66
-1.37442 -6.49102 2.32534 152 156 141
-3.84494 -5.85588 0.34492 23 34 28
-2.19393 -6.08247 3.17413 130 26 32
-0.760291 1.67966 2.47113 150 128 107
1.42967 3.12762 1.02151 74 43 19
-3.46637 -1.25592 4.30724 86 60 54
0.262904 2.07738 1.79551 140 100 72
-1.58418 1.4291 2.99341 120 94 73
-2.80853 0.973575 3.78889 120 98 68
-4.00564 0.313469 4.56314 107 64 53
0.269998 2.86466 1.73492 162 148 126
-1.95053 1.68457 3.20807 122 84 60
0.687097 -8.88381 1.96642 67 84 1
-3.98381 0.109777 4.5442 162 120 75
-2.83701 2.1183 3.74513 72 41 8
-4.08093 3.38045 4.51967 58 37 23
-4.65107 -9.52031 -2.86749 86 28 32
-4.13787 -8.72534 -2.05835 26 26 28
-2.68682 -8.98277 7.43467 22 19 22
2.52188 0.240023 2.1727 72 56 45
-4.3671 -3.42499 4.95797 180 174 174
-3.53703 -0.98426 4.33425 130 80 42
1.49458 2.62557 0.948856 156 142 151
-3.06738 0.352807 4.00922 84 44 30
-2.42922 1.16773 3.56772 163 120 75
1.0064 3.61711 1.23862 124 121 140
-4.9779 1.50327 3.22857 74 48 20
-1.67433 4.01525 2.92336 144 90 78
-3.66716 -7.86712 -2.2185 107 88 68
0.703963 -9.01851 2.07314 74 86 0
-2.90834 -7.07781 -1.08702 114 70 46
0.440852 2.20927 1.66864 114 98 142
-0.418161 -1.72315 2.42999 100 68 30
0.831764 -7.66999 3.01181 60 53 32
2.1035 -0.423599 0.763698 140 103 44
0.724551 -0.785876 1.64399 104 87 78
1.93614 -0.0134461 0.832344 44 30 21
-3.7985 -2.14236 4.62246 50 24 2
-1.01352 -0.143719 2.77153 92 59 11
1.17585 1.23683 1.30315 113 75 12
-0.21992 0.685819 2.18641 176 136 84
-3.53035 -1.00896 4.33449 150 105 60
-3.33007 -0.776993 4.201 176 144 99
-3.77668 -0.78607 4.47074 149 122 102
-3.30926 -0.258127 4.3057 194 175 142
0.957733 2.0637 1.29266 88 72 44
0.260798 2.07472 1.78948 149 110 80
-0.811128 1.61656 2.46151 198 184 159
-4.26543 -0.0738666 4.71999 90 70 71
-4.27551 0.128852 4.74705 162 116 106
-4.16068 0.18602 4.64398 162 124 102
-1.91755 1.3522 2.71524 180 146 96
-2.76013 1.05236 3.73714 172 159 152
-2.52818 1.27647 3.58974 177 142 90
-4.95755 0.0704271 5.14408 84 38 33
0.405083 3.0343 1.61697 148 130 68
-0.140841 2.91728 1.95689 178 140 90
-1.35622 2.41041 2.75357 157 126 78
-3.30035 1.74223 4.05291 138 108 48
-0.312128 3.38044 2.19382 164 132 44
-3.13374 2.01974 3.98956 190 188 190
-2.3507 2.80082 3.40916 40 22 6
0.186925 4.21776 2.11018 194 200 204
-1.933 3.21323 3.11367 164 142 108
-2.73499 2.86116 3.63931 106 74 17
-2.53028 3.13262 3.53526 98 64 37
-2.53028 3.13262 3.53526 98 64 37
-3.50496 2.6865 4.18958 144 112 58
-2.39317 3.49998 3.39273 87 54 38
-1.31085 4.33194 2.76957 184 168 136
-2.21691 3.91483 3.33347 182 174 146
-3.07142 3.51653 3.86591 90 59 12
-3.28675 4.06402 3.9801 167 166 162
0.755101 -7.72286 2.85341 122 58 53
0.911542 0.152529 1.55009 140 103 38
-0.00568423 0.253587 2.08247 168 156 116
-0.0974305 0.236654 2.12588 116 106 67
0.738052 0.974921 1.58121 98 60 10
0.840099 1.23244 1.50557 136 102 44
-4.05299 0.37605 4.57957 158 100 84
-4.72937 -9.25881 -2.81463 20 17 21
-4.52249 -8.97841 -2.81251 126 33 35
-4.21451 -9.15143 -2.01668 25 23 26
1.25478 -1.36541 1.4444 105 74 38
2.19891 -0.542413 1.09717 112 74 28
2.19891 -0.542413 1.09717 112 74 28
1.07905 0.311132 0.289984 62 36 21
1.96406 0.59016 1.24779 222 227 235
1.89577 1.0485 0.931217 138 103 48
-0.440988 -0.184568 2.34497 88 50 47
0.45447 0.413307 1.80866 78 42 6
-1.57637 -0.449254 3.13714 72 38 6
-2.41499 -0.731654 3.60081 74 42 10
-3.65512 -1.47425 4.46424 150 98 67
-1.81418 -0.208928 3.24436 76 43 6
-2.13473 -0.377017 3.43713 90 58 25
-3.57948 -1.15466 4.32882 78 46 36
-0.921613 0.441484 2.70684 89 60 34
-1.44885 0.34058 2.94117 117 70 50
-1.16942 0.573336 2.7433 116 73 34
-2.39687 -0.0833073 3.51053 181 146 112
-0.00180926 1.41045 2.02948 132 89 44
-3.83839 -0.703509 4.43674 150 113 78
0.324476 1.98709 1.79547 187 152 130
-0.327458 1.63647 2.22806 100 64 68
-2.35465 1.03991 3.50834 172 132 83
-4.2964 0.135755 4.66717 147 100 90
-4.10006 0.246567 4.56952 128 102 99
-5.05072 -0.156216 5.15903 51 27 26
-2.00507 1.62168 3.22004 176 124 106
-1.99891 1.62304 3.22829 176 124 106
-2.06829 1.61784 3.26458 108 63 42
-4.11073 0.513245 4.56193 168 92 78
-0.280086 2.68524 2.18893 114 78 48
-2.96632 1.19934 3.84689 104 72 44
-0.622237 2.53543 2.37258 166 132 98
-3.80312 0.783307 4.35928 108 74 48
-1.80483 2.00699 3.11395 90 57 22
-0.841595 2.69113 2.49673 181 144 106
-3.52325 1.27388 4.20758 64 34 2
-4.58715 1.19215 4.82132 67 39 6
0.0477532 3.98674 1.96375 63 39 21
-0.295969 4.65019 2.21937 153 119 40
-3.28372 3.38776 3.94953 74 43 12
-3.08302 3.50829 3.84653 83 51 10
-0.89888 4.84796 2.30027 132 96 32
-2.99815 4.00096 3.77114 116 84 40
-0.273273 5.43406 2.10148 210 210 212
-1.13511 1.86231 2.67511 182 144 138
2.62486 -0.748401 0.81238 92 72 54
0.75781 -0.5081 1.63971 183 162 142
0.935787 0.998002 1.47466 154 117 52
