ply
format ascii 1.0
element vertex 792
property float x
property float y
property float z
property uchar red
property uchar green
property uchar blue
end_header
-0.584137 -0.9569 -0.237604 0 255 0
-0.5903 -0.958607 -0.202065 0 255 0
-0.683714 0.351952 -0.22243 0 255 0
-0.599061 -0.920633 -0.331341 0 255 0
-0.578905 -0.968311 -0.267266 0 255 0
-0.596979 -0.96657 -0.186435 0 255 0
-0.600183 -0.967092 -0.173156 0 255 0
-0.607868 -0.973337 -0.190332 0 255 0
-0.591872 -0.949389 -0.239263 0 255 0
-0.40686 -0.798793 -0.369233 148 98 38
-0.437354 -0.795369 -0.355449 164 144 125
-0.392413 -0.794331 -0.366291 148 118 102
-0.453062 -0.730238 -0.37012 130 122 84
-0.476739 -0.722836 -0.363176 64 34 14
-0.451132 -0.716931 -0.345287 46 16 8
-0.458904 -0.722293 -0.338651 152 144 94
-0.43076 -0.711422 -0.33175 100 66 30
-0.378086 -0.739775 -0.310831 105 54 24
-0.445455 -0.692955 -0.27364 149 138 95
-0.406516 -0.76469 -0.259161 155 128 120
-0.381918 -0.710152 -0.259257 138 106 74
-0.375829 -0.696268 -0.260053 96 72 35
-0.42461 -0.768319 -0.239015 122 72 56
-0.382911 -0.712273 -0.187014 78 56 38
-0.439936 -0.671838 -0.172969 122 85 43
-0.44007 -0.671798 -0.173026 122 85 43
-0.406731 -0.683491 -0.168433 164 150 126
-0.438748 -0.681125 -0.173035 96 48 16
-0.381749 -0.72674 -0.161556 201 178 172
-0.379339 -0.737372 -0.153932 110 64 62
-0.403535 -0.729499 -0.155287 164 133 120
-0.423839 -0.718102 -0.155689 176 138 114
-0.431504 -0.714395 -0.150691 87 75 76
-0.458198 -0.696004 -0.15156 134 88 67
-0.448634 -0.71246 -0.151862 184 94 69
-0.399001 -0.735572 -0.144271 174 140 126
-0.430753 -0.719006 -0.148155 46 16 10
-0.446903 -0.714158 -0.150124 126 28 4
-0.417853 -0.709007 -0.142623 164 129 104
-0.450838 -0.704589 -0.14735 160 134 122
-0.427757 -0.720906 -0.14513 100 66 60
-0.44829 -0.707856 -0.142634 226 173 146
-0.44829 -0.707856 -0.142634 226 173 146
-0.387817 -0.735087 -0.129883 182 155 139
-0.440194 -0.671073 -0.126989 60 40 30
-0.461622 -0.703173 -0.137601 116 76 60
-0.436104 -0.710541 -0.131131 175 140 118
-0.44065 -0.71199 -0.132206 144 80 50
-0.433427 -0.709988 -0.125131 50 18 0
-0.390631 -0.699312 -0.107195 154 142 120
-0.443515 -0.704116 -0.123592 110 88 48
-0.387372 -0.725153 -0.162171 148 112 100
-0.43976 -0.69138 -0.155043 122 106 92
-0.415758 -0.711692 -0.137 140 106 88
-0.391408 -0.734348 -0.125369 44 19 10
-0.423187 -0.819312 -0.370595 170 122 73
-0.394777 -0.800371 -0.379579 146 117 104
-0.441916 -0.731418 -0.372679 97 55 28
-0.428252 -0.739591 -0.354531 66 22 12
-0.440224 -0.695945 -0.307028 100 68 30
-0.397616 -0.765388 -0.272689 160 132 121
-0.409852 -0.783401 -0.248292 190 170 161
-0.408402 -0.684633 -0.170128 72 44 18
-0.483332 -0.713995 -0.173876 154 122 108
-0.383433 -0.742033 -0.149658 122 73 66
-0.479234 -0.721165 -0.155261 127 100 89
-0.427275 -0.715933 -0.135803 73 28 16
-0.491216 -0.720689 -0.153373 239 224 212
-0.438428 -0.710391 -0.128477 178 150 129
-0.438428 -0.710391 -0.128477 178 150 129
-0.410073 -0.494174 -0.0513482 142 115 80
-0.406351 -0.799013 -0.374024 122 62 16
-0.440151 -0.697551 -0.270526 66 36 12
-0.348109 -0.724683 -0.248625 142 124 117
-0.382495 -0.722277 -0.182241 101 26 28
-0.393926 -0.72059 -0.183494 139 64 40
-0.392841 -0.694106 -0.175873 110 66 42
-0.408681 -0.701584 -0.175466 110 90 74
-0.38253 -0.740014 -0.154375 116 64 58
-0.449655 -0.713261 -0.154062 168 77 52
-0.55697 -0.917205 -0.221345 148 107 69
-0.440332 -0.62618 -0.112727 138 108 96
-0.390791 -0.733012 -0.126281 174 122 105
-0.480609 -0.725193 -0.144548 130 111 106
-0.4876 -0.714745 -0.141967 138 111 98
-0.485877 -0.8016 -0.365463 88 91 112
-0.396105 -0.781076 -0.223073 158 31 30
-0.396105 -0.781076 -0.223073 158 31 30
-0.404948 -0.672872 -0.162631 88 68 40
-0.38617 -0.742531 -0.151062 194 144 110
-0.38617 -0.742531 -0.151062 194 144 110
-0.484536 -0.711745 -0.146795 75 60 60
-0.41526 -0.719429 -0.155762 120 88 69
-0.434627 -0.718577 -0.141087 64 16 8
-0.48216 -0.719347 -0.151129 78 56 44
-0.476333 -0.730004 -0.149359 176 150 140
-0.480546 -0.720603 -0.144882 187 164 160
-0.48964 -0.7234 -0.146871 202 186 182
-0.492913 -0.723841 -0.147953 144 119 114
-0.48446 -0.725374 -0.145639 245 232 228
-0.483696 -0.729667 -0.14533 196 178 172
-0.493113 -0.725597 -0.14677 150 128 120
-0.398533 -0.736318 -0.231215 137 30 22
-0.419994 -0.792791 -0.377194 22 12 24
-0.396004 -0.80396 -0.377783 96 20 14
-0.400809 -0.804911 -0.374257 150 120 106
-0.445415 -0.785316 -0.367932 84 24 10
-0.451483 -0.787486 -0.3636 162 147 127
-0.402031 -0.800071 -0.374555 98 10 6
-0.413104 -0.799136 -0.367675 108 17 7
-0.397696 -0.794547 -0.366151 152 130 116
-0.410342 -0.756942 -0.367037 157 139 118
-0.441929 -0.727692 -0.371972 30 8 4
-0.378036 -0.750522 -0.371147 104 63 28
-0.42374 -0.732695 -0.360712 106 67 54
-0.427927 -0.735718 -0.356101 138 96 77
-0.43111 -0.745082 -0.348716 136 94 74
-0.417554 -0.752424 -0.347677 168 122 98
-0.468333 -0.716302 -0.348662 164 110 87
-0.409408 -0.739078 -0.350154 192 148 128
-0.463114 -0.702046 -0.349235 157 145 98
-0.437916 -0.737786 -0.339285 126 81 56
-0.412465 -0.734533 -0.345135 169 120 97
-0.435951 -0.728402 -0.34001 82 38 20
-0.429366 -0.702412 -0.336521 82 38 15
-0.428752 -0.743946 -0.319522 150 103 93
-0.433309 -0.746067 -0.315505 56 14 4
-0.424093 -0.690237 -0.332183 90 57 23
-0.414943 -0.670711 -0.337311 156 144 121
-0.438851 -0.73032 -0.311026 152 104 82
-0.41878 -0.682249 -0.330806 80 46 16
-0.399521 -0.706117 -0.323617 150 132 108
-0.423116 -0.692682 -0.322096 60 20 5
-0.422645 -0.680526 -0.323301 94 58 26
-0.435546 -0.731354 -0.302068 77 30 12
-0.437644 -0.730032 -0.302194 126 79 55
-0.434093 -0.709201 -0.306814 167 117 85
-0.45634 -0.68253 -0.310622 45 20 6
-0.432596 -0.730223 -0.298184 152 100 86
-0.43518 -0.711885 -0.30134 110 65 37
-0.438753 -0.71219 -0.299574 132 82 54
-0.438753 -0.71219 -0.299574 132 82 54
-0.382445 -0.733993 -0.298148 132 78 56
-0.376786 -0.724928 -0.295973 201 154 130
-0.423417 -0.702137 -0.279463 26 8 1
-0.399222 -0.763117 -0.266923 156 128 118
-0.397586 -0.763406 -0.263559 92 68 58
-0.43757 -0.695476 -0.271739 142 122 96
-0.40932 -0.748179 -0.259209 136 30 20
-0.424126 -0.772779 -0.24929 20 12 10
-0.398906 -0.761963 -0.243079 87 80 65
-0.408458 -0.776708 -0.237734 44 31 16
-0.41109 -0.779459 -0.237167 44 31 16
-0.414791 -0.778736 -0.233457 56 40 28
-0.402598 -0.778899 -0.227072 175 160 158
-0.409127 -0.764295 -0.221954 154 136 121
-0.408297 -0.761723 -0.221686 153 137 118
-0.408712 -0.762777 -0.219096 152 136 118
-0.388107 -0.750342 -0.219954 78 64 53
-0.396019 -0.701761 -0.219472 156 145 123
-0.397409 -0.758038 -0.214892 150 132 118
-0.395497 -0.761829 -0.214554 147 129 116
-0.39855 -0.761573 -0.214272 101 80 71
-0.399643 -0.762732 -0.214166 101 80 71
-0.397535 -0.757535 -0.213475 96 76 61
-0.332961 -0.523983 -0.208008 92 92 52
-0.38004 -0.699082 -0.189103 122 100 78
-0.411637 -0.68776 -0.188276 155 146 125
-0.408542 -0.698174 -0.183743 43 14 6
-0.411915 -0.703131 -0.183651 43 14 6
-0.480927 -0.686322 -0.187687 158 126 102
-0.474045 -0.688521 -0.186861 96 90 69
-0.467873 -0.688179 -0.185881 102 81 46
-0.467671 -0.687371 -0.185882 102 81 46
-0.418855 -0.690814 -0.181839 158 140 118
-0.466971 -0.690448 -0.184903 166 139 116
-0.409479 -0.700173 -0.180595 50 29 12
-0.409479 -0.700173 -0.180595 50 29 12
-0.411704 -0.698841 -0.180086 98 71 42
-0.403443 -0.69527 -0.179287 112 92 56
-0.467001 -0.694108 -0.184244 98 70 34
-0.48578 -0.673859 -0.185109 154 138 118
-0.424623 -0.691675 -0.180701 94 66 40
-0.40307 -0.692986 -0.178883 116 94 64
-0.471194 -0.69548 -0.184197 160 134 116
-0.475296 -0.696578 -0.184298 101 90 70
-0.440603 -0.693214 -0.181437 158 130 96
-0.438326 -0.700362 -0.180761 198 166 148
-0.483973 -0.69725 -0.184397 152 128 108
-0.436767 -0.700405 -0.179018 156 128 115
-0.437219 -0.698298 -0.178902 52 30 22
-0.48862 -0.699781 -0.183053 106 66 34
-0.406808 -0.699346 -0.174968 84 66 48
-0.410574 -0.704858 -0.175236 84 66 48
-0.473655 -0.701261 -0.180992 84 68 59
-0.434921 -0.696939 -0.177256 106 69 50
-0.438446 -0.689339 -0.175475 98 24 9
-0.46864 -0.705606 -0.179082 102 64 26
-0.439787 -0.6852 -0.175407 145 140 91
-0.435631 -0.695821 -0.174756 164 128 108
-0.428571 -0.69634 -0.172958 160 122 102
-0.436964 -0.692493 -0.173329 100 32 11
-0.469636 -0.706392 -0.177032 151 116 94
-0.42507 -0.694452 -0.17186 60 28 12
-0.39779 -0.676554 -0.167184 120 106 74
-0.424125 -0.695361 -0.170579 106 71 48
-0.428908 -0.69045 -0.169317 9 6 4
-0.395836 -0.687967 -0.165493 69 42 17
-0.424362 -0.688848 -0.166553 75 92 77
-0.401798 -0.716124 -0.165559 145 118 106
-0.407057 -0.680421 -0.16119 42 22 8
-0.437472 -0.676456 -0.164232 152 150 99
-0.421128 -0.678721 -0.162505 65 50 24
-0.398726 -0.732413 -0.163162 114 65 43
-0.439043 -0.685841 -0.162574 152 150 97
-0.396077 -0.731904 -0.161254 198 174 170
-0.37984 -0.739171 -0.158127 178 150 144
-0.414796 -0.720008 -0.160408 69 28 12
-0.438977 -0.691026 -0.158173 76 76 47
-0.438964 -0.690994 -0.158163 76 76 47
-0.436849 -0.694122 -0.157426 88 76 58
-0.444094 -0.691169 -0.157829 77 85 64
-0.497736 -0.674469 -0.16209 152 148 92
-0.411698 -0.717057 -0.154731 116 85 70
-0.446177 -0.694572 -0.1558 156 130 116
-0.44541 -0.704448 -0.15659 82 82 66
-0.431213 -0.715577 -0.155196 123 86 68
-0.448584 -0.702931 -0.156156 90 88 70
-0.439617 -0.704177 -0.155319 163 132 122
-0.399484 -0.734974 -0.152552 202 162 144
-0.414807 -0.720221 -0.151623 182 156 136
-0.415329 -0.72093 -0.151758 182 156 136
-0.42857 -0.721794 -0.15328 67 24 9
-0.40373 -0.738339 -0.151775 111 63 37
-0.447656 -0.695609 -0.152902 166 136 126
-0.446377 -0.713966 -0.153485 142 48 24
-0.399555 -0.736404 -0.14904 116 71 46
-0.450301 -0.7128 -0.1531 127 17 7
-0.429497 -0.722224 -0.151128 62 25 12
-0.409968 -0.720538 -0.147433 20 19 16
-0.408954 -0.72624 -0.146594 174 144 130
-0.400947 -0.736781 -0.146523 176 130 110
-0.436042 -0.713054 -0.148591 19 17 21
-0.446902 -0.714406 -0.150157 116 22 0
-0.475688 -0.720155 -0.154981 64 40 30
-0.476446 -0.721569 -0.155231 64 40 30
-0.500614 -0.676554 -0.153021 152 146 95
-0.500187 -0.67801 -0.152526 98 60 22
-0.485983 -0.702071 -0.152167 174 132 110
-0.479805 -0.721163 -0.153995 170 144 137
-0.503715 -0.67752 -0.15176 152 144 104
-0.418197 -0.71637 -0.143214 166 113 92
-0.406949 -0.722716 -0.141825 114 101 84
-0.44807 -0.715687 -0.147067 82 21 4
-0.440456 -0.713132 -0.14534 22 11 12
-0.445886 -0.715033 -0.146374 76 20 6
-0.476953 -0.722221 -0.151362 96 74 64
-0.454363 -0.690617 -0.143936 129 82 56
-0.483101 -0.721756 -0.151723 82 59 50
-0.42352 -0.720462 -0.142122 72 27 11
-0.436909 -0.717053 -0.143472 32 16 9
-0.438783 -0.71642 -0.143577 38 16 7
-0.425016 -0.718921 -0.141637 191 125 96
-0.476126 -0.72056 -0.149588 157 137 130
-0.44796 -0.703225 -0.142249 94 46 26
-0.473585 -0.719664 -0.1483 157 136 127
-0.506444 -0.67412 -0.146705 154 100 72
-0.485641 -0.721222 -0.149344 93 75 70
-0.43069 -0.718778 -0.139833 56 25 19
-0.449089 -0.710309 -0.141418 166 113 94
-0.426708 -0.712479 -0.136768 67 26 14
-0.413943 -0.710761 -0.133478 39 14 4
-0.438212 -0.70041 -0.135663 12 6 6
-0.442747 -0.67207 -0.130873 53 14 3
-0.481379 -0.726321 -0.1462 186 169 166
-0.490405 -0.720725 -0.146131 230 213 209
-0.506627 -0.676068 -0.141773 112 80 44
-0.485214 -0.715645 -0.144414 194 178 175
-0.440035 -0.705102 -0.133927 158 86 59
-0.480008 -0.72026 -0.143332 193 176 172
-0.455181 -0.69636 -0.133999 22 10 2
-0.435245 -0.655537 -0.122112 158 115 98
-0.442394 -0.676665 -0.127832 20 8 6
-0.414616 -0.714761 -0.129326 184 156 134
-0.427599 -0.715088 -0.1315 54 20 4
-0.427143 -0.714636 -0.131079 58 26 8
-0.477992 -0.723477 -0.141523 178 159 154
-0.500956 -0.736291 -0.147221 146 106 86
-0.460327 -0.696321 -0.132354 175 155 149
-0.432961 -0.709409 -0.129453 106 62 43
-0.441177 -0.676813 -0.125154 17 9 5
-0.441253 -0.710749 -0.130035 176 142 120
-0.385545 -0.731181 -0.123146 98 70 58
-0.385545 -0.731181 -0.123146 98 70 58
-0.423146 -0.698426 -0.12355 140 72 46
-0.38028 -0.726984 -0.118957 190 166 152
-0.443911 -0.677171 -0.121447 153 146 98
-0.443369 -0.711472 -0.127725 178 150 129
-0.381596 -0.727028 -0.118656 38 22 10
-0.415135 -0.689146 -0.117961 142 79 55
-0.411577 -0.689768 -0.117008 125 84 64
-0.478054 -0.720562 -0.135332 132 18 18
-0.433657 -0.710711 -0.124006 176 149 126
-0.436713 -0.712556 -0.124797 56 30 10
-0.387788 -0.723965 -0.116843 138 80 53
-0.547087 -0.851168 -0.172374 156 109 88
-0.495525 -0.724654 -0.135626 93 70 51
-0.392902 -0.713509 -0.112238 112 80 52
-0.472199 -0.716662 -0.128306 165 146 138
-0.47631 -0.715317 -0.127944 92 106 88
-0.47275 -0.712404 -0.125988 91 94 78
-0.483306 -0.717351 -0.128717 121 78 55
-0.484011 -0.719036 -0.129121 121 78 55
-0.48097 -0.716889 -0.127832 154 136 125
-0.475945 -0.715196 -0.125831 158 141 124
-0.475945 -0.715196 -0.125831 158 141 124
-0.469037 -0.713133 -0.123016 102 66 42
-0.485408 -0.71818 -0.12751 164 122 98
-0.474075 -0.712201 -0.123487 100 100 86
-0.484567 -0.717036 -0.126304 112 67 42
-0.48145 -0.716251 -0.1254 155 136 129
-0.479071 -0.714237 -0.123793 115 102 88
-0.484563 -0.717155 -0.125531 166 122 102
-0.471808 -0.711679 -0.120891 118 88 65
-0.484201 -0.715143 -0.123815 100 56 31
-0.471032 -0.711947 -0.119681 154 134 112
-0.467854 -0.707281 -0.117299 82 54 21
-0.467917 -0.707437 -0.117378 82 54 21
-0.484977 -0.715451 -0.122136 120 78 50
-0.46844 -0.703401 -0.115616 150 132 112
-0.46844 -0.703401 -0.115616 150 132 112
-0.475724 -0.712139 -0.118301 96 30 22
-0.472705 -0.708492 -0.11683 137 94 81
-0.484566 -0.669384 -0.10965 162 137 115
-0.485067 -0.712305 -0.119407 152 136 124
-0.47462 -0.703998 -0.114095 167 128 95
-0.484467 -0.667788 -0.107361 99 64 26
-0.473837 -0.704327 -0.112851 86 60 22
-0.475042 -0.700978 -0.111686 108 78 44
-0.483658 -0.684512 -0.108973 154 129 106
-0.484027 -0.685391 -0.109283 154 129 106
-0.479525 -0.69933 -0.111533 108 100 68
-0.483827 -0.681145 -0.107721 101 70 33
-0.48376 -0.677233 -0.10585 98 62 28
-0.48376 -0.677233 -0.10585 98 62 28
-0.482804 -0.687748 -0.108182 104 72 37
-0.404642 -0.805555 -0.375011 104 12 12
-0.443557 -0.806019 -0.35846 130 110 114
-0.415459 -0.7908 -0.365313 114 26 22
-0.407368 -0.824137 -0.345778 120 14 20
-0.437402 -0.779245 -0.353673 154 106 48
-0.468372 -0.727277 -0.363905 35 12 9
-0.473823 -0.722322 -0.350293 37 16 7
-0.43791 -0.703567 -0.339723 90 51 20
-0.452556 -0.683039 -0.333359 150 146 90
-0.420585 -0.718757 -0.317551 88 37 24
-0.433336 -0.741564 -0.305763 65 13 3
-0.404289 -0.70914 -0.31916 72 32 14
-0.420715 -0.71005 -0.290397 101 59 43
-0.450834 -0.693146 -0.288052 26 8 4
-0.374348 -0.73194 -0.287309 125 74 51
-0.398621 -0.765251 -0.266962 89 63 52
-0.403609 -0.776742 -0.258803 156 129 116
-0.417978 -0.772222 -0.250295 39 4 1
-0.373327 -0.770941 -0.2533 67 33 24
-0.394589 -0.778935 -0.227974 66 25 18
-0.397845 -0.761891 -0.219035 113 102 96
-0.467008 -0.690517 -0.184918 168 144 120
-0.42458 -0.691629 -0.180696 100 72 46
-0.43519 -0.697206 -0.177214 102 65 46
-0.440516 -0.697654 -0.177617 156 125 95
-0.406552 -0.700036 -0.174504 26 14 8
-0.48588 -0.708601 -0.177728 100 60 26
-0.405404 -0.680371 -0.168418 158 150 126
-0.473828 -0.711032 -0.176524 108 72 49
-0.435116 -0.687799 -0.169589 124 36 23
-0.435116 -0.687799 -0.169589 124 36 23
-0.488581 -0.703741 -0.169073 124 8 8
-0.380284 -0.742162 -0.152022 178 157 151
-0.482941 -0.71943 -0.161933 170 144 137
-0.399634 -0.72146 -0.15053 126 82 62
-0.415953 -0.72344 -0.151072 185 160 144
-0.41678 -0.717864 -0.150597 122 94 81
-0.476762 -0.72031 -0.157583 116 91 80
-0.468392 -0.717057 -0.155536 134 86 62
-0.474413 -0.721928 -0.15461 158 137 130
-0.418688 -0.71598 -0.144542 102 60 38
-0.489947 -0.723362 -0.156175 166 140 135
-0.503784 -0.675293 -0.149342 101 46 21
-0.491813 -0.722419 -0.152585 119 98 94
-0.500258 -0.680036 -0.144885 160 109 84
-0.430931 -0.716084 -0.138332 52 12 4
-0.486741 -0.716283 -0.147398 62 46 41
-0.490822 -0.721965 -0.148717 82 60 52
-0.492136 -0.705744 -0.145999 11 12 12
-0.48171 -0.720211 -0.146441 69 55 47
-0.394363 -0.734176 -0.133809 142 110 100
-0.510356 -0.826575 -0.167195 124 83 54
-0.371104 -0.73107 -0.126805 150 116 104
-0.49245 -0.720531 -0.144214 122 79 54
-0.385411 -0.715749 -0.120728 212 195 191
-0.475819 -0.705364 -0.135068 176 153 147
-0.494267 -0.721468 -0.136282 102 76 56
-0.471944 -0.711969 -0.121007 122 90 69
-0.471944 -0.711969 -0.121007 122 90 69
-0.479937 -0.713461 -0.12198 159 137 132
-0.48435 -0.670725 -0.105108 154 148 96
-0.424815 -0.796515 -0.371926 26 15 29
-0.387266 -0.809886 -0.365009 126 14 16
-0.41032 -0.723497 -0.367274 166 138 110
-0.436981 -0.735624 -0.340937 96 53 28
-0.432075 -0.746761 -0.316052 135 94 80
-0.425381 -0.696569 -0.320208 62 22 7
-0.411541 -0.658974 -0.32794 115 74 46
-0.461645 -0.692508 -0.30478 64 18 2
-0.360226 -0.754651 -0.29636 164 140 130
-0.360226 -0.754651 -0.29636 164 140 130
-0.468111 -0.687135 -0.29958 90 58 41
-0.372845 -0.725768 -0.300065 195 144 120
-0.378069 -0.739078 -0.295321 226 174 135
-0.423514 -0.702248 -0.279436 29 8 1
-0.41023 -0.777623 -0.258853 128 104 96
-0.421207 -0.783323 -0.255169 154 126 114
-0.371868 -0.765213 -0.260119 143 106 98
-0.411909 -0.680845 -0.273226 157 146 123
-0.413176 -0.777965 -0.238805 90 86 71
-0.394149 -0.761558 -0.213208 106 86 77
-0.396057 -0.761235 -0.212526 146 128 122
-0.39974 -0.760208 -0.212005 104 88 76
-0.391922 -0.681202 -0.186927 150 138 118
-0.403296 -0.715596 -0.185942 94 64 32
-0.483578 -0.661969 -0.188075 145 138 90
-0.468911 -0.6825 -0.185809 100 90 64
-0.3938 -0.695725 -0.179872 142 114 95
-0.424104 -0.692282 -0.181938 160 137 114
-0.466532 -0.693234 -0.184205 98 69 31
-0.435622 -0.70015 -0.181452 170 138 123
-0.440285 -0.695025 -0.181466 90 52 23
-0.431231 -0.667279 -0.175788 145 142 92
-0.418921 -0.696874 -0.174947 154 126 108
-0.442009 -0.697584 -0.176999 172 132 108
-0.401582 -0.689494 -0.168994 94 74 42
-0.421838 -0.692477 -0.169021 102 80 64
-0.393359 -0.685161 -0.165154 68 41 14
-0.470884 -0.715587 -0.174276 100 58 26
-0.422542 -0.679471 -0.166651 18 26 14
-0.422542 -0.679471 -0.166651 18 26 14
-0.471002 -0.718646 -0.168192 138 94 72
-0.425565 -0.695561 -0.157332 161 130 117
-0.394825 -0.700276 -0.152254 184 160 150
-0.444104 -0.701969 -0.156228 82 82 66
-0.388699 -0.743101 -0.151205 194 143 107
-0.453127 -0.710918 -0.154099 109 28 17
-0.414111 -0.720685 -0.149082 42 28 20
-0.498887 -0.676525 -0.153666 155 132 102
-0.482719 -0.722954 -0.153034 174 148 142
-0.416761 -0.716932 -0.141694 132 86 66
-0.483435 -0.722189 -0.151839 86 63 54
-0.508749 -0.677657 -0.148189 210 159 134
-0.48757 -0.722408 -0.151113 94 71 64
-0.480019 -0.723529 -0.150094 85 67 60
-0.497628 -0.682443 -0.146498 126 80 48
-0.486488 -0.722769 -0.150083 81 62 55
-0.485655 -0.721007 -0.14931 95 78 71
-0.490491 -0.719685 -0.14777 198 174 166
-0.373533 -0.733286 -0.127642 150 120 106
-0.430315 -0.673948 -0.121456 92 76 72
-0.435583 -0.713527 -0.128139 126 70 44
-0.390981 -0.704616 -0.116611 60 32 10
-0.492881 -0.722966 -0.139095 152 108 85
-0.468768 -0.714368 -0.124676 108 74 52
-0.47146 -0.713338 -0.122362 176 152 140
-0.485307 -0.70658 -0.117361 110 78 48
-0.487713 -0.709304 -0.116544 106 66 36
-0.444219 -0.78487 -0.366336 66 10 0
-0.443045 -0.729198 -0.37288 170 144 128
-0.462847 -0.7231 -0.351134 147 88 73
-0.439682 -0.740505 -0.339923 90 47 22
-0.435831 -0.734637 -0.302719 106 58 44
-0.39802 -0.763014 -0.264406 158 134 121
-0.398103 -0.76284 -0.263181 158 134 122
-0.406254 -0.778848 -0.24636 60 45 40
-0.488936 -0.816962 -0.23119 150 141 118
-0.404204 -0.697336 -0.1829 40 22 14
-0.475015 -0.681723 -0.18667 99 92 70
-0.40437 -0.698557 -0.181527 24 14 10
-0.408814 -0.711371 -0.161571 162 124 107
-0.414356 -0.684248 -0.159133 162 153 132
-0.44427 -0.688706 -0.158098 80 78 51
-0.501634 -0.675889 -0.152215 158 150 100
-0.414202 -0.720534 -0.139543 118 94 76
-0.485858 -0.718857 -0.147153 171 153 148
-0.42445 -0.708441 -0.127253 157 142 119
-0.44432 -0.708751 -0.128275 140 102 64
-0.0170464 -0.455395 -0.47187 128 124 132
0.0591372 -0.211775 -0.308548 178 122 103
-0.406704 -0.726745 -0.139658 123 90 73
-0.410126 -0.712962 -0.160032 61 18 4
-0.409374 -0.71443 -0.157806 46 22 8
-0.427952 -0.711739 -0.145145 86 62 68
-0.395409 -0.806427 -0.38997 157 122 107
-0.412565 -0.812357 -0.376582 169 113 44
-0.406483 -0.810485 -0.37929 162 107 36
-0.396468 -0.806103 -0.386655 148 16 18
-0.390191 -0.801038 -0.393169 148 16 18
-0.391287 -0.810455 -0.383547 136 16 14
-0.43987 -0.803478 -0.365805 20 12 20
-0.398382 -0.803461 -0.380456 110 9 9
-0.398382 -0.803461 -0.380456 110 9 9
-0.431368 -0.801476 -0.367704 20 16 28
-0.427054 -0.790207 -0.376846 32 20 30
-0.420386 -0.791151 -0.377936 22 17 30
-0.451997 -0.788176 -0.362931 162 148 130
-0.416169 -0.799091 -0.36552 55 2 2
-0.455294 -0.766532 -0.367136 162 147 126
-0.43743 -0.774618 -0.350885 132 14 16
-0.460738 -0.736227 -0.363677 78 45 26
-0.380947 -0.739728 -0.378386 100 64 32
-0.432497 -0.744982 -0.330093 174 112 90
-0.457893 -0.70607 -0.339673 149 143 91
-0.387982 -0.75222 -0.331892 196 142 108
-0.434427 -0.747568 -0.314571 56 14 4
-0.399016 -0.704886 -0.328115 61 26 15
-0.437482 -0.735369 -0.301249 146 99 78
-0.38414 -0.735727 -0.297237 134 80 56
-0.454239 -0.673949 -0.29088 76 41 24
-0.400583 -0.769392 -0.266098 84 56 48
-0.40132 -0.770242 -0.261828 92 66 56
-0.418423 -0.781737 -0.255245 150 126 118
-0.440239 -0.668943 -0.278199 145 142 89
-0.44176 -0.691324 -0.271844 92 66 32
-0.394971 -0.783672 -0.253246 149 28 28
-0.386688 -0.715222 -0.270404 174 131 114
-0.408009 -0.782087 -0.247068 102 87 80
-0.40823 -0.780375 -0.232841 144 125 118
-0.412921 -0.776775 -0.232557 94 82 66
-0.411546 -0.783855 -0.229163 82 64 57
-0.40474 -0.777278 -0.227548 98 77 72
-0.41278 -0.752593 -0.228165 138 31 22
-0.398885 -0.765932 -0.222755 77 26 18
-0.390775 -0.773754 -0.220953 149 128 121
-0.399713 -0.765659 -0.218613 88 74 64
-0.40063 -0.762701 -0.214576 83 66 56
-0.481496 -0.687622 -0.187658 150 122 92
-0.48331 -0.677372 -0.18683 102 66 30
-0.484295 -0.68151 -0.185087 150 132 110
-0.439025 -0.700509 -0.181825 170 138 118
-0.404939 -0.699057 -0.176568 128 97 78
-0.473623 -0.701199 -0.18101 86 68 59
-0.416397 -0.692937 -0.174653 152 122 102
-0.437785 -0.696296 -0.175741 164 127 109
-0.43797 -0.695397 -0.174897 110 59 32
-0.481718 -0.668409 -0.177665 118 96 80
-0.431233 -0.696401 -0.173074 160 122 104
-0.450827 -0.683629 -0.173533 144 140 90
-0.430419 -0.696764 -0.172117 110 64 39
-0.411809 -0.683223 -0.169298 33 12 2
-0.394442 -0.665895 -0.166888 89 70 37
-0.487166 -0.711787 -0.173899 128 80 58
-0.488258 -0.712277 -0.172628 102 7 4
-0.474169 -0.716388 -0.171442 155 128 115
-0.373205 -0.717013 -0.160755 246 226 220
-0.39655 -0.728061 -0.163098 188 140 120
-0.402029 -0.727689 -0.163223 94 52 26
-0.400636 -0.725832 -0.163125 94 52 26
-0.431595 -0.677083 -0.163825 144 142 88
-0.390524 -0.73994 -0.161534 195 164 158
-0.412307 -0.713603 -0.162365 180 111 82
-0.422162 -0.673895 -0.161972 90 51 16
-0.424557 -0.671061 -0.161552 94 68 24
-0.410767 -0.719039 -0.160093 164 134 118
-0.407382 -0.711887 -0.157688 42 19 8
-0.379958 -0.741234 -0.155296 174 150 145
-0.38063 -0.741886 -0.155348 174 150 145
-0.386405 -0.739343 -0.155528 138 24 21
-0.396829 -0.730688 -0.152063 112 64 38
-0.447942 -0.705386 -0.1559 156 127 112
-0.440279 -0.712556 -0.153885 23 16 14
-0.440279 -0.712556 -0.153885 23 16 14
-0.397756 -0.737639 -0.150579 178 152 146
-0.450131 -0.709661 -0.154727 126 12 8
-0.437559 -0.714522 -0.152686 18 10 10
-0.439618 -0.715699 -0.152522 118 108 108
-0.402633 -0.735567 -0.147308 96 50 26
-0.400652 -0.736444 -0.146464 190 147 127
-0.408496 -0.716978 -0.144 77 36 13
-0.482007 -0.719893 -0.153328 95 70 60
-0.480164 -0.721423 -0.153094 62 40 29
-0.480164 -0.721423 -0.153094 62 40 29
-0.482015 -0.721643 -0.152821 198 173 162
-0.503809 -0.677643 -0.151876 153 145 103
-0.502797 -0.681146 -0.151246 106 59 26
-0.481057 -0.723358 -0.150745 178 158 152
-0.488324 -0.72159 -0.151265 68 48 41
-0.446186 -0.710484 -0.143995 90 33 14
-0.474123 -0.720876 -0.148405 156 136 128
-0.482654 -0.727212 -0.149291 152 135 130
-0.482654 -0.727212 -0.149291 152 135 130
-0.501596 -0.681144 -0.147583 117 64 34
-0.481655 -0.721747 -0.148445 67 53 46
-0.482097 -0.719808 -0.147373 158 140 133
-0.486367 -0.721792 -0.147626 177 160 153
-0.475785 -0.718236 -0.145693 76 62 57
-0.48101 -0.718929 -0.146268 64 50 42
-0.481135 -0.72264 -0.145936 75 59 54
-0.384297 -0.742112 -0.134264 128 99 86
-0.431642 -0.715081 -0.137739 159 94 68
-0.442951 -0.674657 -0.134152 59 23 5
-0.503966 -0.676566 -0.142457 98 64 26
-0.499851 -0.683038 -0.142165 18 8 3
-0.480624 -0.723445 -0.143005 95 76 70
-0.43042 -0.710883 -0.133328 177 146 127
-0.437491 -0.712981 -0.133875 144 76 40
-0.44212 -0.705453 -0.133133 24 4 2
-0.44212 -0.705453 -0.133133 24 4 2
-0.410822 -0.714731 -0.128928 184 155 136
-0.42739 -0.714794 -0.131442 54 18 2
-0.441497 -0.704597 -0.131671 154 96 73
-0.442848 -0.703781 -0.130798 75 50 42
-0.407003 -0.695181 -0.123315 32 27 22
-0.442463 -0.675385 -0.126265 19 7 2
-0.445004 -0.678022 -0.126911 12 10 8
-0.385374 -0.733825 -0.124211 167 138 116
-0.443047 -0.70356 -0.129416 163 126 104
-0.478757 -0.722181 -0.135605 128 23 19
-0.440862 -0.712585 -0.127307 48 34 22
-0.394874 -0.705409 -0.111513 103 63 29
-0.48608 -0.720512 -0.128899 168 123 102
-0.473533 -0.716461 -0.12431 152 134 124
-0.472199 -0.715329 -0.12281 191 166 153
-0.485157 -0.715746 -0.12374 106 62 35
-0.490254 -0.693343 -0.119318 138 112 91
-0.472268 -0.705707 -0.114878 56 28 18
-0.484472 -0.698842 -0.115313 104 64 32
-0.483788 -0.670135 -0.107971 94 62 24
-0.483788 -0.670135 -0.107971 94 62 24
-0.484336 -0.66722 -0.10726 96 62 24
-0.485985 -0.695668 -0.11258 102 66 30
-0.483023 -0.67209 -0.107506 158 138 113
-0.484862 -0.701934 -0.112711 156 140 116
-0.4808 -0.694914 -0.109302 111 82 58
-0.44618 -0.800455 -0.386961 120 22 13
-0.458627 -0.802943 -0.378652 143 43 29
-0.474298 -0.796407 -0.373995 161 144 124
-0.442966 -0.811214 -0.376439 102 3 5
-0.418906 -0.808292 -0.379553 60 36 45
-0.463861 -0.790326 -0.366551 116 14 12
-0.397618 -0.800707 -0.360544 114 20 18
-0.414436 -0.774589 -0.367484 160 140 124
-0.43798 -0.745197 -0.354996 95 44 31
-0.465158 -0.721506 -0.346593 112 56 35
-0.430852 -0.740145 -0.307565 178 121 103
-0.425542 -0.693763 -0.316674 80 31 7
-0.400029 -0.724377 -0.298119 166 113 93
-0.414203 -0.690365 -0.280463 170 150 126
-0.405495 -0.745022 -0.266966 111 64 46
-0.3959 -0.754672 -0.262801 153 119 108
-0.370378 -0.768297 -0.257003 68 30 24
-0.468538 -0.813411 -0.227792 73 40 16
-0.460477 -0.774304 -0.235859 144 136 114
-0.460477 -0.774304 -0.235859 144 136 114
-0.375452 -0.699153 -0.257238 90 66 30
-0.401603 -0.761545 -0.2202 150 131 116
-0.479862 -0.678134 -0.188918 94 68 26
-0.416798 -0.737411 -0.182446 92 57 29
-0.483807 -0.669332 -0.187741 104 66 28
-0.405859 -0.698964 -0.179797 113 89 56
-0.42987 -0.697691 -0.180984 154 124 108
-0.477698 -0.700778 -0.182822 156 132 118
-0.472249 -0.709849 -0.175648 179 145 130
-0.459465 -0.69631 -0.171557 156 140 104
-0.377654 -0.738049 -0.164108 212 188 182
-0.379302 -0.722911 -0.161995 251 236 230
-0.445923 -0.674599 -0.16548 158 146 107
-0.410922 -0.674485 -0.160409 94 78 49
-0.42719 -0.686918 -0.161503 128 122 78
-0.429562 -0.717347 -0.161778 189 120 81
-0.427783 -0.715731 -0.161469 206 143 107
-0.468693 -0.71887 -0.164268 164 148 105
-0.436269 -0.68938 -0.158264 148 140 100
-0.440413 -0.694329 -0.157566 78 84 65
-0.428129 -0.71667 -0.157227 132 76 51
-0.488921 -0.712712 -0.162381 192 152 130
-0.434754 -0.738666 -0.155516 184 157 138
-0.477313 -0.713333 -0.152835 102 75 67
-0.490337 -0.720589 -0.153909 120 84 70
-0.487264 -0.715202 -0.150508 86 65 57
-0.475976 -0.717514 -0.148409 89 71 63
-0.484433 -0.716335 -0.149198 126 106 100
-0.449009 -0.702833 -0.143111 169 142 132
-0.440951 -0.676655 -0.135699 66 26 11
-0.443614 -0.67806 -0.135859 162 144 112
-0.489965 -0.714101 -0.146015 138 102 84
-0.483025 -0.722043 -0.145231 192 173 170
-0.435865 -0.705427 -0.13612 144 77 44
-0.392936 -0.7347 -0.131965 140 105 90
-0.47823 -0.718437 -0.142118 111 92 86
-0.488837 -0.717032 -0.143333 118 94 86
-0.444996 -0.688347 -0.131525 78 26 13
-0.463082 -0.720144 -0.138041 78 26 13
-0.41518 -0.701782 -0.126522 151 130 112
-0.41518 -0.701782 -0.126522 151 130 112
-0.401522 -0.684615 -0.120873 30 20 12
-0.401522 -0.684615 -0.120873 30 20 12
-0.404815 -0.697765 -0.12292 130 114 96
-0.410806 -0.694506 -0.123423 150 138 117
-0.44223 -0.701978 -0.127566 112 86 60
-0.444102 -0.708819 -0.128467 134 96 60
-0.391566 -0.66996 -0.115105 152 140 116
-0.42225 -0.665948 -0.119011 148 136 103
-0.486481 -0.664256 -0.127938 116 104 65
-0.509129 -0.722868 -0.139761 116 104 65
-0.482468 -0.655844 -0.123193 106 87 55
-0.482468 -0.655844 -0.123193 106 87 55
-0.481631 -0.654035 -0.118808 138 108 82
-0.405614 -0.707239 -0.112101 153 136 115
-0.487439 -0.724893 -0.126943 124 88 70
-0.485228 -0.719926 -0.124195 162 136 122
-0.480573 -0.71305 -0.117719 113 20 15
-0.480573 -0.71305 -0.117719 113 20 15
-0.483815 -0.681199 -0.110956 157 134 111
-0.483815 -0.681199 -0.110956 157 134 111
-0.483017 -0.692623 -0.107733 98 74 35
-0.395223 -0.810189 -0.38484 146 27 18
-0.471833 -0.686455 -0.293562 92 64 46
-0.423684 -0.789409 -0.25885 114 83 69
-0.434514 -0.701558 -0.267311 154 145 115
-0.403982 -0.718354 -0.151559 160 127 107
-0.481822 -0.723053 -0.154109 77 54 44
-0.446157 -0.673399 -0.145348 116 66 40
-0.379165 -0.735802 -0.130503 134 106 89
-0.467818 -0.788326 -0.364085 164 148 126
-0.447377 -0.724808 -0.379805 161 150 126
-0.470906 -0.721764 -0.353428 50 22 12
-0.468289 -0.716444 -0.346419 40 10 1
-0.468289 -0.716444 -0.346419 40 10 1
-0.42635 -0.694361 -0.32966 94 58 24
-0.375194 -0.732715 -0.286926 126 76 52
-0.433155 -0.699661 -0.269843 94 66 30
-0.435992 -0.701885 -0.266772 158 146 116
-0.406663 -0.78033 -0.242982 76 62 62
-0.404745 -0.780801 -0.241979 132 114 109
-0.39779 -0.757057 -0.213986 92 72 58
-0.432622 -0.700006 -0.180732 56 27 7
-0.486525 -0.65789 -0.183281 95 72 32
-0.485768 -0.711763 -0.177467 156 122 105
-0.485517 -0.711204 -0.177348 156 122 105
-0.413753 -0.683366 -0.159354 158 148 124
-0.448893 -0.715333 -0.155451 140 70 46
-0.467837 -0.716051 -0.155439 131 83 57
-0.489363 -0.718625 -0.153721 122 90 77
-0.409551 -0.71729 -0.145361 140 111 100
-0.409551 -0.71729 -0.145361 140 111 100
-0.401128 -0.727085 -0.14428 158 128 117
-0.481483 -0.721412 -0.145225 86 70 66
-0.499227 -0.673427 -0.145274 108 61 32
-0.444383 -0.672291 -0.135039 122 82 62
-0.376588 -0.73429 -0.131512 129 100 85
-0.384944 -0.734925 -0.130298 193 166 145
-0.38985 -0.733898 -0.12959 194 164 150
-0.43885 -0.712393 -0.130351 140 100 75
-0.43885 -0.712393 -0.130351 140 100 75
-0.52892 -0.801705 -0.148531 94 70 50
-0.429542 -0.707858 -0.125642 130 70 40
-0.451914 -0.687652 -0.125823 137 97 78
-0.404791 -0.690865 -0.119728 86 68 32
-0.440567 -0.674725 -0.120156 118 76 37
-0.492459 -0.719014 -0.130786 8 8 6
-0.431313 -0.70746 -0.120985 136 88 63
-0.481031 -0.718143 -0.128689 154 134 126
-0.477354 -0.718202 -0.126555 155 138 118
-0.486287 -0.710159 -0.126588 114 73 48
-0.473504 -0.721597 -0.121029 156 143 104
-0.47222 -0.705666 -0.114851 46 22 15
-0.484909 -0.677007 -0.108626 159 137 110
-0.48429 -0.67068 -0.105049 155 148 95
-0.482264 -0.676943 -0.102781 146 144 92
-0.421706 -0.804066 -0.369734 24 14 29
-0.418411 -0.761994 -0.242087 140 84 65
-0.412498 -0.710406 -0.133741 114 88 72
-0.412498 -0.710406 -0.133741 114 88 72
-0.397287 -0.732474 -0.132546 129 94 82
-0.39659 -0.732417 -0.12913 150 90 66
-0.441185 -0.711124 -0.126352 174 150 130
-0.461732 -0.794835 -0.380205 182 66 66
-0.399978 -0.81029 -0.380398 138 12 12
-0.44003 -0.778366 -0.3656 134 93 34
-0.403858 -0.791127 -0.366882 158 136 119
-0.422254 -0.679136 -0.323803 97 62 27
-0.443655 -0.688043 -0.302811 80 30 10
-0.445228 -0.67834 -0.123091 34 16 4
-0.411683 -0.689957 -0.117034 128 82 58
