ply
format ascii 1.0
element vertex 765
property float x
property float y
property float z
property uchar red
property uchar green
property uchar blue
end_header
-0.755688 -1.04892 0.0827674 0 255 0
-0.763476 -0.987577 0.1754 0 255 0
0.0105967 -0.14944 0.0710615 0 255 0
-0.968142 -0.799958 -0.33387 0 255 0
-0 -0 -0 0 255 0
-0.76945 -0.984935 0.222584 0 255 0
-0.769285 -0.968381 0.254007 0 255 0
-0.798096 -1.00135 0.228892 0 255 0
-0.791566 -1.00904 0.0855993 0 255 0
-0.398278 -0.869757 -0.48371 148 118 102
-0.542845 -0.708365 -0.547719 130 122 84
-0.594294 -0.672194 -0.536622 64 34 14
-0.521445 -0.649476 -0.511812 46 16 8
-0.533054 -0.647095 -0.494186 152 144 94
-0.46447 -0.63 -0.496071 100 66 30
-0.323423 -0.685909 -0.446437 105 54 24
-0.461672 -0.51495 -0.385604 149 138 95
-0.298796 -0.560017 -0.367514 138 106 74
-0.285209 -0.531229 -0.38925 96 72 35
-0.251058 -0.479526 -0.210425 78 56 38
-0.390765 -0.369881 -0.185496 122 85 43
-0.389897 -0.368275 -0.186186 122 85 43
-0.304396 -0.395085 -0.184727 164 150 126
-0.383387 -0.385154 -0.178408 96 48 16
-0.227786 -0.481422 -0.140287 201 178 172
-0.225775 -0.506917 -0.120798 172 145 140
-0.277298 -0.474482 -0.109708 164 133 120
-0.280419 -0.493664 -0.103131 102 54 30
-0.329572 -0.445552 -0.110638 176 138 114
-0.345757 -0.430542 -0.0989021 87 75 76
-0.417423 -0.39157 -0.102462 134 88 67
-0.258238 -0.476627 -0.0815847 174 140 126
-0.341488 -0.437112 -0.0889862 46 16 10
-0.383193 -0.425175 -0.0884859 126 28 4
-0.309389 -0.415604 -0.0949134 164 129 104
-0.392765 -0.401502 -0.0903528 160 134 122
-0.331898 -0.438652 -0.0820848 100 66 60
-0.384066 -0.405839 -0.0773693 226 173 146
-0.384066 -0.405839 -0.0773693 226 173 146
-0.367046 -0.326932 -0.0849967 60 40 30
-0.346518 -0.401449 -0.0570087 175 140 118
-0.336484 -0.394678 -0.0461792 50 18 0
-0.225213 -0.367364 -0.0443533 154 142 120
-0.36321 -0.382274 -0.0420825 110 88 48
-0.234536 -0.505227 -0.0930083 122 42 30
-0.245309 -0.475908 -0.041855 44 19 10
-0.469266 -0.920224 -0.454873 170 122 73
-0.410762 -0.896771 -0.506436 146 117 104
-0.518189 -0.718395 -0.555327 97 55 28
-0.472731 -0.720362 -0.513593 66 22 12
-0.471334 -0.563193 -0.456343 100 68 30
-0.335652 -0.688797 -0.332344 160 132 121
-0.342377 -0.694084 -0.255691 190 170 161
-0.306867 -0.396654 -0.187266 72 44 18
-0.486755 -0.438721 -0.119332 154 122 108
-0.221174 -0.499831 -0.0966387 122 73 66
-0.464333 -0.436733 -0.0721017 127 100 89
-0.4928 -0.430007 -0.0612048 239 224 212
-0.360517 -0.325711 -0.0812817 80 54 43
-0.719036 -0.962959 0.0646489 128 72 63
-0.350757 -0.398418 -0.0496845 178 150 129
-0.350757 -0.398418 -0.0496845 178 150 129
-0.294961 0.047958 -0.119668 142 115 80
-0.43436 -0.884203 -0.490358 122 62 16
-0.44682 -0.524854 -0.375375 66 36 12
-0.210397 -0.589848 -0.34781 142 124 117
-0.245149 -0.496363 -0.189063 101 26 28
-0.273619 -0.489843 -0.187563 139 64 40
-0.272253 -0.42729 -0.198776 110 66 42
-0.308215 -0.437107 -0.180971 110 90 74
-0.22544 -0.506622 -0.115609 30 13 12
-0.223006 -0.501715 -0.109573 116 64 58
-0.39233 -0.426494 -0.0965548 168 77 52
-0.363881 -0.219445 -0.101959 138 108 96
-0.227082 -0.45358 -0.0502013 174 122 105
-0.46013 -0.431315 -0.0440003 130 111 106
-0.47703 -0.406067 -0.0448779 138 111 98
-0.605538 -0.845697 -0.471193 88 91 112
-0.289369 -0.662008 -0.211456 158 31 30
-0.289369 -0.662008 -0.211456 158 31 30
-0.300164 -0.36967 -0.18313 88 68 40
-0.22741 -0.500572 -0.0979339 194 144 110
-0.22741 -0.500572 -0.0979339 194 144 110
-0.308004 -0.450614 -0.114684 120 88 69
-0.271498 -0.485313 -0.0934152 110 63 40
-0.316501 -0.431245 -0.0811813 88 45 26
-0.32314 -0.334927 -0.0869748 24 17 16
-0.359731 -0.327221 -0.0760129 112 84 66
-0.46952 -0.869468 -0.497664 22 12 24
-0.410964 -0.902035 -0.501108 96 20 14
-0.420807 -0.89883 -0.488349 150 120 106
-0.524668 -0.834218 -0.47313 84 24 10
-0.536057 -0.831968 -0.458913 162 147 127
-0.424462 -0.888141 -0.493198 98 10 6
-0.445726 -0.874528 -0.475175 108 17 7
-0.407618 -0.867294 -0.485859 152 130 116
-0.439378 -0.780614 -0.525177 157 139 118
-0.519473 -0.71096 -0.553288 30 8 4
-0.363704 -0.780721 -0.560756 104 63 28
-0.468061 -0.715208 -0.532564 106 67 54
-0.475211 -0.715494 -0.516315 138 96 77
-0.476947 -0.726139 -0.489651 136 94 74
-0.443488 -0.745764 -0.485882 168 122 98
-0.568472 -0.650873 -0.500717 164 110 87
-0.426471 -0.72201 -0.509867 192 148 128
-0.556374 -0.621204 -0.522049 157 145 98
-0.487584 -0.697168 -0.473352 126 81 56
-0.429476 -0.70424 -0.5051 169 120 97
-0.483948 -0.678177 -0.486031 82 38 20
-0.465708 -0.617858 -0.513908 82 38 15
-0.452018 -0.691107 -0.428769 150 103 93
-0.460049 -0.689519 -0.415556 56 14 4
-0.450142 -0.587282 -0.522201 90 57 23
-0.431718 -0.552508 -0.561575 156 144 121
-0.471463 -0.648221 -0.419991 152 104 82
-0.436024 -0.568941 -0.532819 80 46 16
-0.384365 -0.620395 -0.499441 150 132 108
-0.440755 -0.581148 -0.498729 60 20 5
-0.441261 -0.556447 -0.514464 94 58 26
-0.456875 -0.640664 -0.402466 77 30 12
-0.46162 -0.636656 -0.404061 126 79 55
-0.456928 -0.597101 -0.43979 167 117 85
-0.514518 -0.535671 -0.465594 45 20 6
-0.447355 -0.63483 -0.396792 152 100 86
-0.455816 -0.596427 -0.424261 110 65 37
-0.463271 -0.593921 -0.418081 132 82 54
-0.463271 -0.593921 -0.418081 132 82 54
-0.325322 -0.658555 -0.421739 132 78 56
-0.310451 -0.637695 -0.430896 201 154 130
-0.412525 -0.552945 -0.395924 26 8 1
-0.34408 -0.68213 -0.31095 156 128 118
-0.338135 -0.679642 -0.303978 92 68 58
-0.442029 -0.524924 -0.378702 142 122 96
-0.363459 -0.63655 -0.306463 136 30 20
-0.392087 -0.675275 -0.247587 20 12 10
-0.326866 -0.651889 -0.261674 87 80 65
-0.346945 -0.676326 -0.226306 44 31 16
-0.352238 -0.680448 -0.220958 44 31 16
-0.358652 -0.673301 -0.21179 56 40 28
-0.324639 -0.670065 -0.205056 175 160 158
-0.337855 -0.629912 -0.207007 154 136 121
-0.335367 -0.623833 -0.210292 153 137 118
-0.335016 -0.623421 -0.202827 152 136 118
-0.285323 -0.602675 -0.231967 78 64 53
-0.306692 -0.492761 -0.282242 156 145 123
-0.304424 -0.611184 -0.206415 150 132 118
-0.299471 -0.619858 -0.20232 147 129 116
-0.307309 -0.618521 -0.19968 101 80 71
-0.309348 -0.620199 -0.197901 101 80 71
-0.303594 -0.608223 -0.204072 96 76 61
-0.155189 -0.112208 -0.497908 92 92 52
-0.246754 -0.456004 -0.230415 122 100 78
-0.323628 -0.420559 -0.222931 155 146 125
-0.31296 -0.439555 -0.202656 43 14 6
-0.32067 -0.449097 -0.194863 43 14 6
-0.491971 -0.395617 -0.182044 158 126 102
-0.474505 -0.401442 -0.181918 96 90 69
-0.459127 -0.401946 -0.183557 102 81 46
-0.458317 -0.399651 -0.185008 102 81 46
-0.335752 -0.416318 -0.202224 158 140 118
-0.455569 -0.405034 -0.180079 166 139 116
-0.313102 -0.440127 -0.19296 50 29 12
-0.313102 -0.440127 -0.19296 50 29 12
-0.318302 -0.436067 -0.191989 98 71 42
-0.297661 -0.429618 -0.199488 112 92 56
-0.455489 -0.413033 -0.173875 98 70 34
-0.50246 -0.363809 -0.188102 154 138 118
-0.350077 -0.416621 -0.194287 94 66 40
-0.296609 -0.424215 -0.201515 116 94 64
-0.465648 -0.414761 -0.169649 160 134 116
-0.475951 -0.416527 -0.165834 101 90 70
-0.389408 -0.415977 -0.184558 158 130 96
-0.38353 -0.432157 -0.175773 198 166 148
-0.496691 -0.414656 -0.160618 152 128 108
-0.378257 -0.430308 -0.173188 156 128 115
-0.378662 -0.424432 -0.17582 52 30 22
-0.507284 -0.417768 -0.151668 106 66 34
-0.302677 -0.432495 -0.183541 84 66 48
-0.306665 -0.437251 -0.180095 84 66 48
-0.469078 -0.422698 -0.1548 84 68 59
-0.371945 -0.420154 -0.175294 106 69 50
-0.380663 -0.401746 -0.177221 98 24 9
-0.456129 -0.432797 -0.14783 102 64 26
-0.383823 -0.391908 -0.181255 145 140 91
-0.372782 -0.415636 -0.170068 164 128 108
-0.353628 -0.415888 -0.170506 160 122 102
-0.375499 -0.406668 -0.169824 100 32 11
-0.457198 -0.431948 -0.141867 151 116 94
-0.276423 -0.376093 -0.19878 120 106 74
-0.342058 -0.413411 -0.168432 106 71 48
-0.269855 -0.399607 -0.183188 69 42 17
-0.340235 -0.394474 -0.167172 75 92 77
-0.282653 -0.459293 -0.147361 145 118 106
-0.294724 -0.374739 -0.175973 42 22 8
-0.371065 -0.360532 -0.16884 152 150 99
-0.330028 -0.368424 -0.17227 65 50 24
-0.273984 -0.494596 -0.124167 114 65 43
-0.372373 -0.37727 -0.154357 152 150 97
-0.266342 -0.492152 -0.122192 198 174 170
-0.223148 -0.508469 -0.117382 178 150 144
-0.312062 -0.459485 -0.122967 69 28 12
-0.370159 -0.385264 -0.137879 76 76 47
-0.370149 -0.385237 -0.13787 76 76 47
-0.36444 -0.391963 -0.133865 88 76 58
-0.382364 -0.383612 -0.13393 77 85 64
-0.515729 -0.334148 -0.131335 152 148 92
-0.300755 -0.4473 -0.116109 116 85 70
-0.386194 -0.388486 -0.124158 156 130 116
-0.384436 -0.411273 -0.11482 82 82 66
-0.34849 -0.438461 -0.107302 123 86 68
-0.392029 -0.406626 -0.113684 90 88 70
-0.269168 -0.488408 -0.097538 202 162 144
-0.305956 -0.449572 -0.10398 182 156 136
-0.307622 -0.451537 -0.102907 182 156 136
-0.340552 -0.450794 -0.0974674 67 24 9
-0.278451 -0.493232 -0.0896284 111 63 37
-0.387432 -0.386421 -0.116155 166 136 126
-0.384417 -0.428452 -0.0963862 142 48 24
-0.266426 -0.486986 -0.0885656 116 71 46
-0.393696 -0.424161 -0.0946292 127 17 7
-0.341712 -0.449473 -0.0915242 62 25 12
-0.291674 -0.447311 -0.0972828 20 19 16
-0.288497 -0.459327 -0.0893549 174 144 130
-0.268207 -0.484594 -0.0818194 176 130 110
-0.354925 -0.422575 -0.0938589 19 17 21
-0.383689 -0.425816 -0.0882173 116 22 0
-0.456633 -0.434944 -0.0748233 64 40 30
-0.458886 -0.43869 -0.0729792 64 40 30
-0.516664 -0.327614 -0.10758 152 146 95
-0.480525 -0.389025 -0.0836892 174 132 110
-0.466 -0.434835 -0.0690345 170 144 137
-0.524043 -0.32896 -0.101069 152 144 104
-0.308998 -0.430735 -0.0882045 166 113 92
-0.280556 -0.446674 -0.0844376 114 101 84
-0.384199 -0.424391 -0.0795437 82 21 4
-0.364813 -0.419417 -0.0832145 22 11 12
-0.378443 -0.422823 -0.0801222 76 20 6
-0.456832 -0.434386 -0.0641795 96 74 64
-0.397323 -0.36214 -0.0992378 129 82 56
-0.472523 -0.432592 -0.0614514 82 59 50
-0.321227 -0.437095 -0.0777843 72 27 11
-0.354554 -0.426658 -0.0768849 32 16 9
-0.359471 -0.425195 -0.0765475 38 16 7
-0.324569 -0.432643 -0.0776745 191 125 96
-0.454416 -0.430185 -0.0621762 157 137 130
-0.381125 -0.391413 -0.0838674 94 46 26
-0.447106 -0.426926 -0.0622364 157 136 127
-0.527372 -0.314921 -0.0925401 154 100 72
-0.477154 -0.427949 -0.0554264 93 75 70
-0.337243 -0.428631 -0.0705314 56 25 19
-0.383213 -0.405935 -0.0729988 166 113 94
-0.325533 -0.412167 -0.0738335 67 26 14
-0.292238 -0.408357 -0.0764505 39 14 4
-0.35325 -0.380843 -0.0787255 12 6 6
-0.361973 -0.311449 -0.0989924 53 14 3
-0.464705 -0.4373 -0.0450506 186 169 166
-0.486667 -0.421799 -0.0462141 230 213 209
-0.524554 -0.313627 -0.0795008 112 80 44
-0.47237 -0.40916 -0.052085 194 178 175
-0.356316 -0.388578 -0.0684337 158 86 59
-0.459684 -0.421142 -0.0467812 193 176 172
-0.39364 -0.365016 -0.0697012 22 10 2
-0.338836 -0.268086 -0.103712 158 115 98
-0.358873 -0.318101 -0.0873292 20 8 6
-0.290797 -0.412032 -0.0625263 184 156 134
-0.324071 -0.411581 -0.0589276 54 20 4
-0.322853 -0.410463 -0.0587252 58 26 8
-0.453515 -0.426888 -0.0402672 178 159 154
-0.512842 -0.454672 -0.0237773 146 106 86
-0.404977 -0.361351 -0.0632055 175 155 149
-0.336188 -0.395414 -0.0578466 106 62 43
-0.354326 -0.316148 -0.0819656 17 9 5
-0.35649 -0.3962 -0.0527108 176 142 120
-0.215732 -0.450527 -0.0470802 98 70 58
-0.215732 -0.450527 -0.0470802 98 70 58
-0.308559 -0.367128 -0.0640362 140 72 46
-0.198169 -0.436025 -0.0471368 190 166 152
-0.35833 -0.31153 -0.0720852 153 146 98
-0.360306 -0.394872 -0.0454787 178 150 129
-0.203166 -0.437291 -0.0447066 38 22 10
-0.285559 -0.342545 -0.0677574 142 79 55
-0.274434 -0.341607 -0.0681749 125 84 64
-0.44945 -0.412967 -0.0304895 132 18 18
-0.332778 -0.389952 -0.0450553 176 149 126
-0.342103 -0.395901 -0.0419002 56 30 10
-0.217029 -0.426446 -0.0407711 138 80 53
-0.639653 -0.725161 0.0855358 156 109 88
-0.492234 -0.417422 -0.0157309 93 70 51
-0.226718 -0.396446 -0.0401424 112 80 52
-0.430672 -0.398188 -0.0234271 165 146 138
-0.440627 -0.393892 -0.0216516 92 106 88
-0.430698 -0.386203 -0.0230415 91 94 78
-0.458126 -0.397193 -0.016723 121 78 55
-0.459884 -0.400699 -0.0153588 121 78 55
-0.451772 -0.395618 -0.0168485 154 136 125
-0.438311 -0.391278 -0.0174872 158 141 124
-0.438311 -0.391278 -0.0174872 158 141 124
-0.41957 -0.385315 -0.0180895 102 66 42
-0.462328 -0.396765 -0.0119827 164 122 98
-0.432268 -0.382521 -0.0170985 100 100 86
-0.459501 -0.393101 -0.0112434 112 67 42
-0.451412 -0.391498 -0.0120128 155 136 129
-0.444562 -0.385779 -0.0123987 115 102 88
-0.459016 -0.39256 -0.00941432 166 122 102
-0.425034 -0.379027 -0.0135052 118 88 65
-0.457069 -0.38639 -0.00827322 100 56 31
-0.422334 -0.378474 -0.0110533 154 134 112
-0.413168 -0.366454 -0.0133094 82 54 21
-0.413335 -0.366791 -0.0132859 82 54 21
-0.457832 -0.384848 -0.00385357 120 78 50
-0.413624 -0.355856 -0.0138868 150 132 112
-0.413624 -0.355856 -0.0138868 150 132 112
-0.432786 -0.375802 -0.00509463 96 30 22
-0.424621 -0.367167 -0.007966 137 94 81
-0.449948 -0.269581 -0.0313182 162 137 115
-0.456331 -0.374756 -0.00164131 152 136 124
-0.427551 -0.353446 -0.00626988 167 128 95
-0.448254 -0.26355 -0.0283236 99 64 26
-0.424896 -0.353148 -0.00362293 86 60 22
-0.427082 -0.34395 -0.00438256 108 78 44
-0.446876 -0.302365 -0.0126419 154 129 106
-0.447753 -0.304091 -0.0121906 154 129 106
-0.437943 -0.338833 -0.00329283 108 100 68
-0.446367 -0.293057 -0.0139355 101 70 33
-0.445371 -0.283025 -0.0143431 98 62 28
-0.445371 -0.283025 -0.0143431 98 62 28
-0.443929 -0.308296 -0.00781657 104 72 37
-0.431171 -0.900107 -0.485825 104 12 12
-0.513036 -0.869851 -0.430558 130 110 114
-0.450689 -0.852768 -0.477176 114 26 22
-0.418098 -0.907155 -0.399585 120 14 20
-0.578492 -0.692722 -0.520779 35 12 9
-0.582278 -0.663478 -0.496003 37 16 7
-0.464637 -0.719635 -0.521631 67 28 12
-0.488458 -0.621288 -0.514808 90 51 20
-0.520052 -0.56333 -0.517354 150 146 90
-0.431411 -0.635284 -0.458819 88 37 24
-0.453536 -0.668129 -0.400105 65 13 3
-0.392269 -0.619945 -0.484653 72 32 14
-0.41324 -0.584161 -0.411458 101 59 43
-0.485266 -0.534376 -0.408781 26 8 4
-0.298201 -0.643883 -0.405917 125 74 51
-0.342304 -0.686899 -0.309246 89 63 52
-0.348327 -0.701364 -0.2756 156 129 116
-0.377963 -0.677245 -0.253774 39 4 1
-0.271805 -0.691868 -0.287644 67 33 24
-0.305761 -0.673654 -0.211662 66 25 18
-0.308162 -0.624398 -0.210527 113 102 96
-0.455635 -0.405161 -0.180026 168 144 120
-0.34995 -0.416502 -0.194369 100 72 46
-0.373269 -0.421599 -0.174017 102 65 46
-0.386507 -0.421444 -0.171179 156 125 95
-0.301647 -0.433495 -0.181936 26 14 8
-0.496553 -0.431627 -0.13173 100 60 26
-0.295597 -0.383642 -0.192422 158 150 126
-0.466526 -0.43957 -0.133296 108 72 49
-0.368446 -0.392351 -0.168522 124 36 23
-0.368446 -0.392351 -0.168522 124 36 23
-0.497732 -0.410479 -0.116963 124 8 8
-0.221214 -0.508994 -0.099733 178 157 151
-0.479034 -0.439213 -0.0862333 170 144 137
-0.267076 -0.454479 -0.109988 126 82 62
-0.308246 -0.455678 -0.0983336 185 160 144
-0.310141 -0.442573 -0.103368 122 94 81
-0.460543 -0.437306 -0.0799618 116 91 80
-0.439219 -0.430782 -0.0840982 134 86 62
-0.453131 -0.438591 -0.0728014 158 137 130
-0.310953 -0.431063 -0.0913148 102 60 38
-0.492008 -0.438822 -0.0652018 166 140 135
-0.521965 -0.319689 -0.099228 101 46 21
-0.494213 -0.432115 -0.0574359 119 98 94
-0.511012 -0.327886 -0.085318 160 109 84
-0.336624 -0.420475 -0.0705157 52 12 4
-0.478641 -0.414372 -0.0564319 62 46 41
-0.489354 -0.427328 -0.0500814 82 60 52
-0.491333 -0.388318 -0.0623704 11 12 12
-0.465569 -0.423359 -0.0528212 69 55 47
-0.243841 -0.46632 -0.0614018 142 110 100
-0.546412 -0.674194 0.0450191 124 83 54
-0.182572 -0.458431 -0.0639113 150 116 104
-0.49042 -0.418653 -0.0410505 122 79 54
-0.213926 -0.413263 -0.0602907 212 195 191
-0.444239 -0.379737 -0.0491486 176 153 147
-0.48938 -0.410766 -0.0219369 102 76 56
-0.425383 -0.379626 -0.0133773 122 90 69
-0.425383 -0.379626 -0.0133773 122 90 69
-0.44565 -0.382039 -0.00878282 159 137 132
-0.446577 -0.267958 -0.0199682 154 148 96
-0.480538 -0.871486 -0.472568 26 15 29
-0.38223 -0.903497 -0.469749 126 14 16
-0.439132 -0.7055 -0.567473 166 138 110
-0.486485 -0.694566 -0.47994 96 53 28
-0.45765 -0.692357 -0.416088 135 94 80
-0.445636 -0.587868 -0.487125 62 22 7
-0.419382 -0.519048 -0.553356 115 74 46
-0.523085 -0.549174 -0.43873 64 18 2
-0.268316 -0.708451 -0.40834 164 140 130
-0.268316 -0.708451 -0.40834 164 140 130
-0.536166 -0.530586 -0.428224 90 58 41
-0.304315 -0.645902 -0.440135 195 144 120
-0.311638 -0.667133 -0.413712 226 174 135
-0.41269 -0.553011 -0.395794 29 8 1
-0.363526 -0.700776 -0.2717 128 104 96
-0.387598 -0.705839 -0.250607 154 126 114
-0.271668 -0.68657 -0.311266 143 106 98
-0.381082 -0.502304 -0.413862 157 146 123
-0.357583 -0.677784 -0.225821 90 86 71
-0.295134 -0.618031 -0.200633 106 86 77
-0.300024 -0.616478 -0.197851 146 128 122
-0.30802 -0.611956 -0.196277 104 88 76
-0.275179 -0.410645 -0.239319 150 138 118
-0.301223 -0.482384 -0.189986 94 64 32
-0.499613 -0.342004 -0.209466 145 138 90
-0.461928 -0.389308 -0.189234 100 90 64
-0.272856 -0.432213 -0.207421 142 114 95
-0.350025 -0.420008 -0.196208 160 137 114
-0.453864 -0.410394 -0.175631 98 69 31
-0.377443 -0.433323 -0.179107 170 138 123
-0.388611 -0.420135 -0.182665 90 52 23
-0.364102 -0.355672 -0.207955 145 142 92
-0.33101 -0.421716 -0.180243 154 126 108
-0.390067 -0.420597 -0.168738 172 132 108
-0.286788 -0.405936 -0.185023 94 74 42
-0.335909 -0.406377 -0.169543 102 80 64
-0.264421 -0.394494 -0.186726 68 41 14
-0.458065 -0.448661 -0.12446 100 58 26
-0.336535 -0.374819 -0.179207 18 26 14
-0.336535 -0.374819 -0.179207 18 26 14
-0.454198 -0.448435 -0.107701 138 94 72
-0.337114 -0.398748 -0.138546 161 130 117
-0.258857 -0.4127 -0.140418 184 160 150
-0.381168 -0.405896 -0.117667 82 82 66
-0.241721 -0.508128 -0.0915346 194 143 107
-0.401524 -0.42066 -0.0971108 109 28 17
-0.301296 -0.446525 -0.0991604 42 28 20
-0.513635 -0.330484 -0.109171 155 132 102
-0.472571 -0.437224 -0.0629308 174 148 142
-0.304607 -0.430841 -0.0850538 132 86 66
-0.473536 -0.433945 -0.0608319 86 63 54
-0.533911 -0.323817 -0.0901538 210 159 134
-0.483127 -0.432368 -0.0565313 94 71 64
-0.464017 -0.435955 -0.0575411 85 67 60
-0.505656 -0.335798 -0.0875436 126 80 48
-0.4798 -0.432326 -0.0545321 81 62 55
-0.477303 -0.427794 -0.0554388 95 78 71
-0.488104 -0.421673 -0.0507772 198 174 166
-0.325565 -0.308888 -0.0838795 92 76 72
-0.341548 -0.402213 -0.048619 126 70 44
-0.225002 -0.38209 -0.0612942 60 32 10
-0.488197 -0.418558 -0.026714 152 108 85
-0.420014 -0.390173 -0.0203148 108 74 52
-0.425066 -0.384463 -0.0149327 176 152 140
-0.45566 -0.359711 -0.00383776 110 78 48
-0.460908 -0.364102 0.00257484 106 66 36
-0.522794 -0.715028 -0.552761 170 144 128
-0.556672 -0.670596 -0.501152 147 88 73
-0.492415 -0.703598 -0.470142 90 47 22
-0.458103 -0.648839 -0.399548 106 58 44
-0.339447 -0.679361 -0.306407 158 134 121
-0.338822 -0.677534 -0.303936 158 134 122
-0.34721 -0.69162 -0.243753 60 45 40
-0.538551 -0.7353 -0.115616 150 141 118
-0.300197 -0.436352 -0.205775 40 22 14
-0.476361 -0.384763 -0.189592 99 92 70
-0.296529 -0.441169 -0.140546 162 124 107
-0.381512 -0.376035 -0.138532 80 78 51
-0.294567 -0.434546 -0.0789245 118 94 76
-0.47553 -0.419041 -0.0538437 171 153 148
-0.311469 -0.390046 -0.0606592 157 142 119
-0.360983 -0.386265 -0.0504252 140 102 64
-0.276759 -0.451924 -0.0762251 123 90 73
-0.295358 -0.438988 -0.137363 61 18 4
-0.292406 -0.440556 -0.130866 46 22 8
-0.417843 -0.921741 -0.524269 157 122 107
-0.450921 -0.914548 -0.477329 169 113 44
-0.438241 -0.915378 -0.488389 162 107 36
-0.418974 -0.917071 -0.51521 148 16 18
-0.409383 -0.915352 -0.536287 148 16 18
-0.403213 -0.924546 -0.508625 136 16 14
-0.509655 -0.874015 -0.449849 20 12 20
-0.419966 -0.903604 -0.503015 110 9 9
-0.419966 -0.903604 -0.503015 110 9 9
-0.490211 -0.874309 -0.46145 20 16 28
-0.486282 -0.861014 -0.49647 32 20 30
-0.470183 -0.866164 -0.503129 22 17 30
-0.537036 -0.832662 -0.455886 162 148 130
-0.451761 -0.871038 -0.46875 55 2 2
-0.54827 -0.788216 -0.48847 162 147 126
-0.493071 -0.792502 -0.456338 132 14 16
-0.558384 -0.713202 -0.518627 78 45 26
-0.375947 -0.764286 -0.586957 100 64 32
-0.467627 -0.703862 -0.449376 174 112 90
-0.536229 -0.619446 -0.502554 149 143 91
-0.361416 -0.736486 -0.468797 196 142 108
-0.46135 -0.690694 -0.412806 56 14 4
-0.38694 -0.623788 -0.509246 61 26 15
-0.459991 -0.647012 -0.396851 146 99 78
-0.328937 -0.661016 -0.416468 134 80 56
-0.495928 -0.494021 -0.435247 76 41 24
-0.347013 -0.694962 -0.300573 84 56 48
-0.344757 -0.69091 -0.291437 92 66 56
-0.381476 -0.703496 -0.253936 150 126 118
-0.454541 -0.474475 -0.419725 145 142 89
-0.452347 -0.514563 -0.381315 92 66 32
-0.323256 -0.713038 -0.260714 149 28 28
-0.315712 -0.582149 -0.384022 174 131 114
-0.350349 -0.697941 -0.242229 102 87 80
-0.340929 -0.677321 -0.213817 144 125 118
-0.354055 -0.668889 -0.212688 94 82 66
-0.346463 -0.679827 -0.199777 82 64 57
-0.330637 -0.666661 -0.206285 98 77 72
-0.35039 -0.60908 -0.232977 138 31 22
-0.313046 -0.637326 -0.213229 77 26 18
-0.292194 -0.655401 -0.204659 149 128 121
-0.31118 -0.630825 -0.205243 88 74 64
-0.310796 -0.619287 -0.199455 83 66 56
-0.493073 -0.397848 -0.18043 150 122 92
-0.49711 -0.37349 -0.18972 102 66 30
-0.498278 -0.380419 -0.180473 150 132 110
-0.385145 -0.432404 -0.178269 170 138 118
-0.298666 -0.433654 -0.188912 128 97 78
-0.468979 -0.422553 -0.154969 86 68 59
-0.325567 -0.414503 -0.185067 152 122 102
-0.378484 -0.416916 -0.170528 164 127 109
-0.378503 -0.414057 -0.169545 110 59 32
-0.487398 -0.343815 -0.181352 118 96 80
-0.360725 -0.416089 -0.168573 160 122 104
-0.409531 -0.383044 -0.17242 144 140 90
-0.358252 -0.416258 -0.16642 110 64 39
-0.311222 -0.388409 -0.187578 33 12 2
-0.269246 -0.354432 -0.211786 89 70 37
-0.49719 -0.434055 -0.118876 128 80 58
-0.498933 -0.433242 -0.114978 102 7 4
-0.463238 -0.444458 -0.11655 155 128 115
-0.211606 -0.466282 -0.151727 246 226 220
-0.268536 -0.485292 -0.13063 188 140 120
-0.281686 -0.48264 -0.128283 94 52 26
-0.278339 -0.478886 -0.131055 94 52 26
-0.356372 -0.36326 -0.170739 144 142 88
-0.25237 -0.511651 -0.116908 195 164 158
-0.306316 -0.446935 -0.137123 180 111 82
-0.332089 -0.356624 -0.176338 90 51 16
-0.337756 -0.349209 -0.177297 94 68 24
-0.301328 -0.457358 -0.12639 164 134 118
-0.292187 -0.440351 -0.131254 42 19 8
-0.221958 -0.510209 -0.108525 174 150 145
-0.223551 -0.511461 -0.107507 174 150 145
-0.237904 -0.504304 -0.107406 138 24 21
-0.261625 -0.47824 -0.103687 112 64 38
-0.389704 -0.411193 -0.111077 156 127 112
-0.369645 -0.427322 -0.102742 23 16 14
-0.369645 -0.427322 -0.102742 23 16 14
-0.262813 -0.491808 -0.0916551 178 152 146
-0.39423 -0.418787 -0.102132 126 12 8
-0.361891 -0.430769 -0.0996884 18 10 10
-0.366747 -0.432502 -0.0967564 118 108 108
-0.272305 -0.481708 -0.0843083 96 50 26
-0.266823 -0.483212 -0.0826874 190 147 127
-0.285459 -0.435426 -0.095261 77 36 13
-0.4709 -0.430467 -0.0678476 95 70 60
-0.466225 -0.434169 -0.0666294 62 40 29
-0.466225 -0.434169 -0.0666294 62 40 29
-0.469996 -0.432691 -0.0652748 198 173 162
-0.524378 -0.329647 -0.100953 153 145 103
-0.521371 -0.336831 -0.0961596 106 59 26
-0.466805 -0.435533 -0.0587402 178 158 152
-0.484848 -0.429896 -0.057655 68 48 41
-0.377567 -0.40972 -0.080304 90 33 14
-0.447886 -0.428496 -0.0612898 156 136 128
-0.469005 -0.440706 -0.0507575 152 135 130
-0.469005 -0.440706 -0.0507575 152 135 130
-0.515924 -0.332754 -0.0891375 117 64 34
-0.466716 -0.429063 -0.0553745 67 53 46
-0.467181 -0.423503 -0.0550366 158 140 133
-0.477813 -0.427091 -0.0505895 177 160 153
-0.450705 -0.419994 -0.057059 76 62 57
-0.463697 -0.420408 -0.0544546 64 50 42
-0.463259 -0.42735 -0.049737 75 59 54
-0.218705 -0.486897 -0.0594036 128 99 86
-0.337783 -0.41709 -0.0701508 159 94 68
-0.36396 -0.319958 -0.103349 59 23 5
-0.518671 -0.316912 -0.0816956 98 64 26
-0.508165 -0.331665 -0.0761276 18 8 3
-0.460096 -0.426044 -0.0427138 95 76 70
-0.332126 -0.403287 -0.0662386 177 146 127
-0.349432 -0.406102 -0.0608828 144 76 40
-0.360633 -0.387498 -0.0652289 24 4 2
-0.360633 -0.387498 -0.0652289 24 4 2
-0.281253 -0.412612 -0.0640029 184 155 136
-0.323323 -0.410651 -0.0594157 54 18 2
-0.35831 -0.384318 -0.0633625 154 96 73
-0.361202 -0.381351 -0.0615219 75 50 42
-0.268942 -0.364288 -0.077135 32 27 22
-0.35867 -0.31465 -0.0848876 19 7 2
-0.363102 -0.317007 -0.0833091 12 10 8
-0.215283 -0.457018 -0.0466767 167 138 116
-0.360562 -0.378917 -0.0588397 163 126 104
-0.450782 -0.415616 -0.0292326 128 23 19
-0.353607 -0.397168 -0.0449636 48 34 22
-0.231873 -0.377751 -0.046654 103 63 29
-0.464446 -0.402461 -0.0121782 168 123 102
-0.43141 -0.392997 -0.0141789 152 134 124
-0.426828 -0.3885 -0.013375 191 166 153
-0.459556 -0.387663 -0.00668726 106 62 35
-0.469382 -0.331255 -0.0206639 138 112 91
-0.422691 -0.359487 -0.00709025 56 28 18
-0.452378 -0.340275 -0.00916071 104 64 32
-0.447195 -0.270184 -0.0270662 94 62 24
-0.447195 -0.270184 -0.0270662 94 62 24
-0.448037 -0.262601 -0.0287123 96 62 24
-0.454568 -0.330218 -0.00592426 102 66 30
-0.445377 -0.275133 -0.0238857 158 138 113
-0.452084 -0.345155 0.000729634 156 140 116
-0.440177 -0.327111 -0.00260294 111 82 58
-0.539132 -0.889729 -0.495087 120 22 13
-0.564167 -0.88216 -0.465831 143 43 29
-0.599285 -0.857608 -0.454128 161 144 124
-0.524642 -0.902782 -0.460223 102 3 5
-0.468346 -0.907042 -0.484661 60 36 45
-0.569039 -0.838669 -0.451617 116 14 12
-0.403992 -0.87476 -0.46575 114 20 18
-0.448872 -0.818992 -0.503811 160 140 124
-0.498814 -0.732394 -0.496608 95 44 31
-0.559239 -0.661083 -0.491975 112 56 35
-0.450008 -0.66908 -0.40468 178 121 103
-0.443282 -0.576944 -0.483742 80 31 7
-0.368529 -0.631961 -0.422222 166 113 93
-0.39127 -0.530984 -0.416998 170 150 126
-0.360799 -0.64077 -0.327348 111 64 46
-0.335304 -0.660982 -0.311743 153 119 108
-0.268886 -0.692121 -0.298753 68 30 24
-0.489515 -0.731771 -0.121375 73 40 16
-0.474823 -0.655552 -0.190937 144 136 114
-0.474823 -0.655552 -0.190937 144 136 114
-0.280115 -0.534621 -0.381016 90 66 30
-0.320522 -0.625765 -0.208957 150 131 116
-0.490601 -0.379604 -0.194695 94 68 26
-0.33228 -0.523923 -0.14778 92 57 29
-0.499453 -0.357177 -0.200414 104 66 28
-0.303181 -0.436934 -0.195355 113 89 56
-0.362986 -0.428813 -0.184612 154 124 108
-0.480194 -0.422567 -0.156874 156 132 118
-0.462029 -0.436302 -0.133842 179 145 130
-0.429185 -0.406659 -0.147862 156 140 104
-0.222467 -0.514056 -0.132579 212 188 182
-0.225046 -0.477008 -0.145218 251 236 230
-0.391793 -0.354154 -0.169376 158 146 107
-0.302175 -0.357439 -0.180312 94 78 49
-0.343125 -0.38257 -0.157521 128 122 78
-0.348064 -0.449485 -0.120997 189 120 81
-0.344893 -0.44776 -0.122222 206 143 107
-0.445605 -0.444475 -0.100743 164 148 105
-0.363353 -0.382054 -0.141925 148 140 100
-0.373113 -0.391369 -0.131885 78 84 65
-0.342854 -0.444853 -0.111813 132 76 51
-0.495025 -0.424977 -0.090489 192 152 130
-0.35824 -0.490867 -0.0775562 184 157 138
-0.46039 -0.418817 -0.0762732 102 75 67
-0.491858 -0.430698 -0.0630011 120 84 70
-0.483087 -0.417539 -0.0630306 86 65 57
-0.454207 -0.423619 -0.0625584 89 71 63
-0.47533 -0.419429 -0.0605621 126 106 100
-0.384608 -0.391747 -0.085292 169 142 132
-0.35958 -0.32589 -0.105914 66 26 11
-0.366888 -0.329661 -0.102399 162 144 112
-0.486685 -0.409177 -0.0530761 138 102 84
-0.46803 -0.425852 -0.0471712 192 173 170
-0.347638 -0.393099 -0.0752492 144 77 44
-0.237703 -0.464466 -0.0584183 140 105 90
-0.455511 -0.417877 -0.0466044 111 92 86
-0.48216 -0.41307 -0.0444896 118 94 86
-0.368134 -0.348655 -0.0793493 78 26 13
-0.415927 -0.421473 -0.044926 78 26 13
-0.289995 -0.379036 -0.0718778 151 130 112
-0.289995 -0.379036 -0.0718778 151 130 112
-0.251921 -0.336738 -0.0890364 30 20 12
-0.251921 -0.336738 -0.0890364 30 20 12
-0.262924 -0.369759 -0.0747817 130 114 96
-0.276932 -0.359984 -0.0767318 150 138 117
-0.357519 -0.373752 -0.0571187 112 86 60
-0.362812 -0.389835 -0.0496627 134 96 60
-0.223065 -0.299175 -0.100536 152 140 116
-0.304816 -0.291276 -0.0926485 148 136 103
-0.466024 -0.276461 -0.076272 116 104 65
-0.527607 -0.412704 -0.0191767 116 104 65
-0.453043 -0.253072 -0.0786069 106 87 55
-0.453043 -0.253072 -0.0786069 106 87 55
-0.448028 -0.244099 -0.0718864 138 108 82
-0.256422 -0.376983 -0.0403297 153 136 115
-0.467952 -0.4127 -0.000734627 124 88 70
-0.460645 -0.398832 -0.00217055 162 136 122
-0.44491 -0.377113 0.000646179 113 20 15
-0.44491 -0.377113 0.000646179 113 20 15
-0.448425 -0.296798 -0.0208719 157 134 111
-0.448425 -0.296798 -0.0208719 157 134 111
-0.444038 -0.318533 -0.000973675 98 74 35
-0.413436 -0.924168 -0.509779 146 27 18
-0.540514 -0.519708 -0.41567 92 64 46
-0.398184 -0.724516 -0.247359 114 83 69
-0.431557 -0.534438 -0.363702 154 145 115
-0.278381 -0.447344 -0.113346 160 127 107
-0.470503 -0.438055 -0.066174 77 54 44
-0.37826 -0.327275 -0.127886 116 66 40
-0.202885 -0.469237 -0.0623054 134 106 89
-0.576412 -0.829503 -0.448721 164 148 126
-0.538178 -0.712071 -0.569791 161 150 126
-0.577443 -0.667136 -0.50428 50 22 12
-0.566486 -0.648062 -0.49684 40 10 1
-0.566486 -0.648062 -0.49684 40 10 1
-0.453294 -0.592315 -0.511744 94 58 24
-0.299923 -0.644907 -0.403715 126 76 52
-0.429754 -0.533305 -0.372464 94 66 30
-0.434723 -0.534126 -0.361217 158 146 116
-0.345653 -0.690606 -0.234747 76 62 62
-0.340546 -0.691255 -0.232899 132 114 109
-0.304815 -0.607853 -0.205345 92 72 58
-0.369052 -0.432334 -0.180061 56 27 7
-0.502783 -0.324757 -0.203435 95 72 32
-0.496253 -0.438687 -0.127294 156 122 105
-0.49557 -0.437383 -0.127851 156 122 105
-0.309066 -0.37647 -0.165056 158 148 124
-0.391549 -0.432565 -0.0977398 140 70 46
-0.43778 -0.428512 -0.0854675 131 83 57
-0.489618 -0.426807 -0.0652595 122 90 77
-0.288693 -0.437098 -0.0973516 140 111 100
-0.288693 -0.437098 -0.0973516 140 111 100
-0.266994 -0.459988 -0.0886087 158 128 117
-0.464463 -0.425209 -0.048657 86 70 66
-0.508029 -0.312054 -0.095542 108 61 32
-0.367567 -0.314493 -0.10763 122 82 62
-0.198064 -0.468504 -0.0674526 129 100 85
-0.217564 -0.465921 -0.0591172 193 166 145
-0.229358 -0.461578 -0.0557269 194 164 150
-0.349686 -0.399485 -0.0536362 140 100 75
-0.349686 -0.399485 -0.0536362 140 100 75
-0.580923 -0.593477 0.0678116 94 70 50
-0.324676 -0.38772 -0.0539729 130 70 40
-0.379708 -0.336208 -0.0649129 137 97 78
-0.260531 -0.350368 -0.0763158 86 68 32
-0.349584 -0.306063 -0.0740475 118 76 37
-0.481893 -0.40061 -0.0136448 8 8 6
-0.326253 -0.381444 -0.0431388 136 88 63
-0.452814 -0.399919 -0.0169136 154 134 126
-0.442418 -0.398666 -0.0144818 155 138 118
-0.464486 -0.378487 -0.0185856 114 73 48
-0.429881 -0.401999 -0.000509491 156 143 104
-0.422743 -0.359676 -0.00698364 46 22 15
-0.449849 -0.285042 -0.019989 159 137 110
-0.446448 -0.267914 -0.0198756 155 148 95
-0.439772 -0.279567 -0.00893071 146 144 92
-0.468209 -0.885349 -0.46824 24 14 29
-0.374074 -0.645104 -0.247499 140 84 65
-0.287589 -0.406806 -0.0791929 114 88 72
-0.287589 -0.406806 -0.0791929 114 88 72
-0.249002 -0.459065 -0.0596372 129 94 82
-0.244982 -0.455192 -0.0527723 150 90 66
-0.352816 -0.391486 -0.0451064 174 150 130
-0.572374 -0.864743 -0.478352 182 66 66
-0.421578 -0.917786 -0.497975 138 12 12
-0.509838 -0.817587 -0.480005 134 93 34
-0.422159 -0.858276 -0.489615 158 136 119
-0.439833 -0.552732 -0.519542 97 62 27
-0.477846 -0.542179 -0.450799 80 30 10
-0.360848 -0.312872 -0.0746747 34 16 4
-0.274412 -0.341645 -0.0681076 128 82 58
