ply
format ascii 1.0
element vertex 278
property float x
property float y
property float z
property uchar red
property uchar green
property uchar blue
end_header
0.0196595 -0.241535 -0.397827 0 255 0
-2.78038 -2.69498 -0.992951 0 255 0
-0.25591 0.198926 -0.2208 0 255 0
-3.95157 0.24215 5.58227 0 255 0
-3.76396 -6.34121 -9.34752 0 255 0
-3.26341 -4.12377 -1.99498 0 255 0
-2.46924 -3.36397 -2.7806 0 255 0
-0.232375 -4.24652 -0.389813 0 255 0
-3.23575 0.0303662 -2.79387 0 255 0
-4.12194 -1.36129 -2.57917 0 255 0
-0.0771543 -3.78877 -0.752752 0 255 0
-3.36681 1.17746 4.91327 194 180 143
-4.06335 1.66148 5.82744 86 51 12
-4.48886 2.06788 6.20975 98 66 29
-4.19469 0.530966 6.53813 220 158 144
-5.29661 0.632031 7.22316 78 52 28
-2.83668 -0.0176121 2.87626 142 107 87
-2.59478 -0.152297 5.55219 156 144 142
-1.61217 -1.20633 3.74474 150 107 104
-0.0795081 1.08756 2.10152 101 86 37
-0.143926 1.36834 2.67665 6 44 26
0.282315 0.338386 2.34035 115 102 85
-0.791932 1.63245 2.56702 115 141 124
-0.849487 1.67805 2.58088 126 139 22
-0.914531 1.7048 2.58805 160 150 32
0.170581 0.0843714 2.39024 100 87 74
0.0805208 -0.0257072 2.31345 94 84 74
-0.301159 0.333009 2.36082 24 55 32
0.0558303 -0.162943 2.27435 16 18 17
0.0332258 -0.336694 2.20757 188 189 172
-0.00684227 -0.273811 2.23687 44 56 37
-0.077786 -0.186518 2.28309 72 71 36
-0.113942 -0.402352 2.39716 175 85 50
-0.292747 -0.222796 2.46384 6 48 28
-0.427108 -0.102271 2.6259 188 160 138
-0.716503 0.100686 3.16468 23 44 34
-0.682058 -0.111722 3.01532 6 42 28
-0.135691 -0.906561 3.00602 89 86 93
-0.781203 -0.149694 3.26292 186 184 190
-0.778203 -0.355619 3.11104 132 148 149
-0.35049 -0.848228 3.10574 140 206 190
-0.584671 -0.776016 3.59106 174 174 180
-2.18576 0.541265 3.86962 97 70 46
-3.5427 0.388136 2.72712 144 123 103
-2.30281 0.849955 4.68527 73 46 26
-2.33096 0.690812 4.57966 163 154 158
-2.38883 0.743486 4.73736 56 38 32
-3.20612 0.175355 3.52411 197 182 142
-3.30637 0.0775722 3.66467 170 140 105
-2.91762 0.0826862 4.24027 132 100 48
-2.30403 -0.146267 5.57883 190 101 96
-2.56513 -0.169552 5.27025 148 106 88
-4.08709 -0.754651 5.01227 134 107 94
-2.438 0.280763 4.11162 62 52 50
-2.30784 0.270664 4.47042 126 95 54
-3.51677 -0.128526 3.97829 195 136 84
-3.32025 -0.17248 4.354 148 122 96
-2.20386 0.772252 4.34215 49 30 15
-4.05896 0.111512 5.8437 122 82 50
-3.96351 -1.05867 4.67529 68 46 24
-1.06648 1.69597 2.65504 182 115 39
-2.18352 0.535811 3.85857 90 63 37
-3.93405 0.055609 3.02206 42 24 16
-2.48668 -0.00997411 5.06248 205 182 146
-3.96831 -0.153422 3.47925 87 64 42
-3.14404 -0.219185 4.76819 150 112 65
-4.27642 -0.362616 3.66722 184 172 168
-4.00078 -0.5508 4.55033 205 146 130
-3.83859 -0.606281 5.00915 174 132 98
-2.17406 -0.74229 4.55811 162 124 102
-0.173059 1.40427 1.92687 166 169 170
0.0318535 1.26849 2.00088 14 13 16
-0.138573 1.27602 1.92646 22 56 40
0.198962 0.913188 2.0731 222 150 167
-0.509357 1.66052 1.96062 145 152 28
-0.146511 1.07975 1.98537 137 134 114
-0.0972337 1.00798 1.99449 22 54 38
-0.326579 1.32247 2.12657 4 56 32
-0.48546 1.40793 2.14065 178 178 182
-0.00454341 1.14506 2.50188 18 22 24
-0.696788 1.57404 2.30136 137 160 84
-0.475023 1.25026 2.38278 68 89 80
-0.475023 1.25026 2.38278 68 89 80
-0.769537 1.50471 2.47055 166 168 170
-0.817012 1.55492 2.4851 70 108 99
-0.646955 1.07109 2.34181 18 56 40
-0.643935 1.09737 2.44284 96 104 110
-0.095236 -0.0923312 2.1028 38 64 50
-0.632945 0.982794 2.43574 102 104 111
-0.867234 1.27463 2.60828 34 82 68
-0.807434 1.1252 2.4939 82 134 125
-0.130461 -0.223372 2.14432 166 144 94
-0.18184 -0.216056 2.21546 122 95 58
-0.167649 -0.255079 2.24563 174 146 122
-0.158485 -0.307674 2.24383 171 134 118
-0.651679 0.824647 2.67293 110 112 120
-1.1364 1.50171 3.06825 24 46 38
-0.596626 0.127928 2.58659 54 72 69
-0.832795 0.556164 2.78414 76 116 130
-0.627719 0.0998477 2.58177 48 84 77
-0.538495 -0.125255 2.53824 111 68 90
-1.24972 1.35727 3.20316 169 165 168
-0.541325 -0.15121 2.55945 168 156 160
-0.764434 0.355042 2.81974 196 178 120
-0.530285 -0.185549 2.57633 167 160 159
-0.852485 0.554032 3.32131 147 34 37
-1.00968 0.749422 3.5608 129 24 30
-0.945096 0.705223 3.56428 239 156 169
-0.796545 -0.205748 2.9641 117 122 118
-0.671475 -0.4609 2.90802 192 145 130
-0.754828 -0.381974 2.97564 174 151 127
-0.754828 -0.381974 2.97564 174 151 127
-0.803878 -0.344482 2.98864 132 116 90
-0.709477 -0.452699 2.96524 122 51 56
-0.815076 -0.330157 3.06992 138 98 67
-0.501761 -0.116068 3.58614 21 86 51
-0.614793 -0.503976 3.22668 18 16 18
-0.676268 -0.497118 3.28279 16 14 16
-0.823192 -0.289837 3.46056 189 186 191
-0.373033 -0.454301 3.72934 162 164 170
-0.68374 -0.562186 3.47661 190 189 192
-0.599395 -0.583127 3.52967 54 52 56
-0.782419 -0.63733 3.36436 120 26 30
-2.28206 0.483401 3.72697 60 34 14
-0.734114 -0.69203 3.46704 9 7 10
-0.882898 -0.637696 3.43434 214 124 138
-0.724953 -0.748064 3.53525 13 12 14
-2.67515 0.422003 3.61872 148 116 56
-2.49402 0.409552 3.78545 125 92 46
-2.35853 0.395066 3.93829 138 107 52
-0.817461 -0.824948 3.51296 67 44 50
-0.866967 -0.854987 3.45457 254 196 198
-0.758274 -0.823775 3.61089 40 38 42
-0.867501 -0.856609 3.50062 178 84 87
-0.834604 -0.813849 3.59254 184 182 183
-1.68812 0.658075 5.12148 48 36 31
-1.43837 0.29105 4.84183 134 108 72
-1.73741 0.262788 4.6606 50 28 12
-1.79229 0.277372 4.64107 48 32 24
-1.81726 0.2472 4.65782 124 92 43
-2.94109 0.225016 3.83706 119 70 60
-2.11382 0.221515 4.46271 128 95 46
-2.05761 0.199724 4.47422 128 96 48
-1.9724 0.227713 4.58576 134 100 40
-2.34828 0.184097 4.41608 152 118 52
-1.94136 0.170866 4.71422 141 108 45
-2.33985 0.14454 4.41301 105 68 16
-2.46803 0.131063 4.38382 155 120 49
-1.97658 0.147938 4.77774 145 112 46
-1.87425 0.0835226 4.88132 86 56 26
-2.19448 0.0670843 4.69005 148 116 54
-2.05585 0.073484 4.81251 80 56 34
-2.1745 0.0533153 4.71919 80 56 32
-3.08084 0.0478554 4.06814 118 77 50
-1.74912 0.0565389 5.06776 169 131 106
-3.91088 0.0345871 3.52658 188 152 68
-3.91088 0.0345871 3.52658 188 152 68
-3.95477 0.0101285 3.49798 180 148 62
-3.83735 -0.00261935 3.64533 172 140 68
-3.02978 -0.0160691 4.22311 148 114 42
-3.65077 -0.0441048 3.74109 167 135 62
-3.00661 -0.0294041 4.27795 95 64 21
-3.06294 -0.039445 4.23026 101 72 30
-3.69231 -0.0428662 3.76405 95 64 28
-3.87309 -0.0219264 3.67149 106 78 51
-3.47295 -0.0672635 3.91012 142 100 66
-3.15315 -0.111604 4.22723 134 102 48
-3.93688 -0.0882641 3.68312 106 86 70
-3.67641 -0.114743 3.93613 141 104 54
-1.80999 -0.246952 5.27679 144 114 54
-3.75882 -0.158835 3.97702 103 74 78
-3.81886 -0.245168 3.91843 171 152 81
-3.84287 -0.258299 4.1126 97 69 80
-4.15928 -0.266215 3.88752 122 93 52
-4.27777 -0.29972 3.89253 74 57 36
-4.27777 -0.29972 3.89253 74 57 36
-2.00704 -0.321399 5.62422 142 112 47
-4.3328 -0.291619 3.89834 80 60 34
-3.90797 -0.314288 4.21049 192 155 102
-2.54751 -0.368928 5.15883 122 88 72
-2.44635 -0.335991 5.31996 112 72 54
-2.5167 -0.341244 5.2661 120 78 58
-2.32605 -0.151288 5.79299 122 81 68
-2.95183 -0.358919 4.94912 125 92 62
-3.44536 -0.342778 4.64188 156 131 90
-4.09377 -0.363573 4.12799 100 72 36
-4.25353 -0.356545 4.0749 92 66 51
-2.47971 -0.38948 5.41047 154 126 56
-3.50647 -0.401315 4.67305 166 136 70
-4.24793 -0.397064 4.13559 174 144 64
-2.17433 -0.456941 5.80878 128 99 32
-4.25706 -0.462151 4.24891 184 152 62
-2.84243 -0.495683 5.32818 90 64 20
-2.48386 -0.515814 5.5872 150 122 59
-2.48386 -0.515814 5.5872 150 122 59
-2.36919 -0.519487 5.75118 88 66 23
-3.254 -0.503775 5.09203 142 111 52
-3.52569 -0.581854 4.88683 162 132 60
-3.57643 -0.570042 4.90375 39 22 1
-4.54129 -0.514877 4.2779 178 178 176
-4.30549 -0.571682 4.52256 186 153 70
-4.56617 -0.598976 4.40137 47 25 10
-4.56617 -0.598976 4.40137 47 25 10
-3.2919 -0.699335 5.3446 158 130 68
-3.31988 -0.721921 5.41799 156 128 74
-4.40222 -0.68601 4.62692 187 156 73
-4.40222 -0.68601 4.62692 187 156 73
-3.78989 -0.731871 5.02591 98 70 57
-3.28437 -0.745402 5.42675 52 34 18
-4.21999 -0.706268 4.75029 134 113 100
-4.0653 -0.720285 4.89167 169 157 131
-4.25308 -0.727457 4.74959 192 175 141
-3.92933 -0.737683 5.01774 184 176 146
-3.58513 -0.807536 5.33088 158 129 52
-4.83333 -0.734688 4.5681 156 154 150
-4.33142 -0.790443 4.86576 143 111 49
-4.33142 -0.790443 4.86576 143 111 49
-4.72154 -0.799079 4.54034 199 169 104
-4.08083 -0.827606 5.02537 178 147 62
-4.03272 -0.843169 5.09062 166 132 66
-4.51022 -0.818743 4.765 174 140 66
-3.5555 -0.842556 5.53653 148 144 130
-4.0739 -0.852988 5.1007 94 62 26
-4.63748 -0.82442 4.72795 188 158 72
-4.2471 -0.841611 5.01669 78 56 33
-4.5524 -0.83418 4.81946 93 65 38
-4.50579 -0.84827 4.83846 105 74 33
0.0569708 1.97172 1.27012 20 17 21
-0.0701441 1.97623 1.32182 126 33 35
0.0237515 2.02192 1.64138 25 23 26
-0.451293 2.04802 1.92426 153 162 150
-0.458177 2.49112 2.78328 40 85 74
-0.579184 2.78629 3.51952 174 186 182
-0.574824 2.65402 3.49704 10 64 44
-0.647184 2.38486 3.42647 134 137 144
-0.685238 2.43782 3.55146 30 76 58
-0.842671 2.16011 4.03892 76 116 105
-0.855683 1.25973 2.33676 183 141 122
-0.83492 1.87181 3.93073 196 156 137
-0.589119 1.35464 3.94702 47 22 26
-0.615358 1.30674 3.96448 189 184 192
-0.855065 0.851189 2.65574 25 16 18
-0.433723 0.537494 2.86167 154 148 152
-0.965537 0.461462 2.54969 42 28 30
-0.859407 0.364614 2.64798 36 28 32
-0.925254 0.314069 2.61257 178 172 174
-3.09747 1.65644 4.21869 105 74 38
-3.59257 1.81081 4.29668 112 74 28
-3.59257 1.81081 4.29668 112 74 28
-2.01042 0.966795 4.29652 30 14 10
-2.10953 1.03361 4.39375 92 60 26
-4.08256 1.38134 4.29269 138 103 48
-2.33289 0.123935 4.4351 74 42 10
-2.66324 0.23518 4.43721 76 43 6
-2.52285 0.150786 4.44349 90 58 25
-1.88245 -0.226281 4.47935 78 46 36
-2.55999 -0.00532596 4.44522 181 146 112
-1.96712 -0.419865 4.50239 150 113 78
-3.98028 0.577648 4.39987 187 152 130
-2.93704 -0.243115 4.51385 172 132 83
-2.12619 -0.775813 4.55582 147 100 90
-2.21189 -0.728494 4.55907 128 102 99
-1.82692 -0.999371 4.58904 51 27 26
-3.21263 -0.256068 4.50719 108 63 42
-2.29815 -0.790644 4.56931 168 92 78
-4.04415 0.18613 4.47795 114 78 48
-3.90552 0.0914853 4.4789 166 132 98
-2.4703 -0.732813 4.56334 108 74 48
-3.89891 -0.0264152 4.49505 181 144 106
-2.70343 -0.738358 4.58136 64 34 2
-2.39803 -1.11936 4.61811 67 39 6
-4.56603 0.0215283 4.52045 63 39 21
-4.68517 -0.264475 4.58556 153 119 40
-3.47598 -1.10857 4.63773 74 43 12
-3.56685 -1.0615 4.64043 83 51 10
-4.62499 -0.508591 4.52718 132 96 32
-3.75445 -1.137 4.65158 116 84 40
-4.96335 -0.421037 4.58684 210 210 212
