ply
format ascii 1.0
element vertex 582
property float x
property float y
property float z
property uchar red
property uchar green
property uchar blue
end_header
-0.613141 -2.40238 -2.29945 0 255 0
-0.390955 -2.56657 -2.22333 0 255 0
-0.991502 -2.32766 -2.28685 0 255 0
-0.91058 -2.30551 -2.35699 0 255 0
-0 -0 -0 0 255 0
-0.29408 -2.6518 -2.24524 0 255 0
0.0373446 -2.496 -1.97562 0 255 0
-0.323793 -2.70385 -2.31038 0 255 0
-0.642322 -2.49962 -2.22804 0 255 0
-1.38279 -1.09219 -1.32988 148 98 38
-1.33877 -1.02086 -1.29075 148 118 102
-1.65328 -1.5533 -0.86277 64 34 14
-1.46475 -1.49045 -0.799929 152 144 94
-1.08913 -1.04124 -0.811701 105 54 24
-1.08401 -1.56067 -0.492321 149 138 95
-0.782135 -1.29377 -0.878007 155 128 120
-0.834412 -1.18109 -0.532111 138 106 74
-0.854946 -1.14551 -0.437861 96 72 35
-0.68511 -1.43922 -0.864315 122 72 56
-0.385164 -1.33252 -0.408362 78 56 38
-0.486097 -1.75839 -0.208093 122 85 43
-0.486117 -1.75737 -0.204473 122 85 43
-0.372502 -1.54706 -0.232687 164 150 126
-0.191642 -1.522 -0.477077 164 133 120
-0.188014 -1.5238 -0.534214 102 54 30
-0.249173 -1.6871 -0.437524 182 136 116
-0.247549 -1.72253 -0.406168 87 75 76
-0.341736 -1.90673 -0.334328 134 88 67
-0.274113 -1.82343 -0.417606 126 28 4
-0.243385 -1.85354 -0.374377 226 173 146
-0.243385 -1.85354 -0.374377 226 173 146
-0.0147882 -1.50147 -0.45981 144 110 94
-0.208901 -1.86292 -0.147621 60 40 30
0.0864651 -1.38214 -0.360623 120 90 77
-0.154844 -1.82097 -0.364814 144 80 50
0.0609354 -1.47586 -0.388503 172 147 128
0.0664638 -1.56698 -0.216773 154 142 120
-0.125692 -1.86829 -0.324576 110 88 48
-1.15257 -1.41989 -0.838555 82 30 14
-1.4127 -1.00533 -1.35419 146 117 104
-1.60935 -1.32278 -0.925288 97 55 28
-0.685228 -1.32194 -0.975663 190 170 161
-0.492602 -2.00664 -0.484433 154 122 108
-0.353883 -2.01721 -0.49825 127 100 89
-0.192399 -1.85713 -0.154706 80 54 43
0.00578043 -1.51264 -0.447654 144 70 46
-0.131727 -1.81934 -0.357403 178 150 129
-0.131727 -1.81934 -0.357403 178 150 129
-0.0593324 -1.94035 0.885357 142 115 80
-1.56672 -1.54093 -1.36045 88 91 112
-0.501681 -1.28492 -0.899984 158 31 30
-0.501681 -1.28492 -0.899984 158 31 30
-0.354209 -1.55784 -0.164995 88 68 40
-0.104853 -1.4072 -0.530214 194 144 110
-0.104853 -1.4072 -0.530214 194 144 110
-0.0865672 -1.58402 -0.365583 160 121 104
-0.0722656 -1.63973 -0.359126 182 156 134
-0.236332 -1.60002 -0.42163 120 88 69
-0.150782 -1.52216 -0.514098 110 63 40
-0.165964 -1.6771 -0.401077 88 45 26
-0.172862 -1.74071 -0.364967 64 16 8
-0.147157 -1.74579 -0.115197 24 17 16
0.0118801 -1.48611 -0.453967 50 22 12
0.00228638 -1.56643 -0.333306 58 32 8
0.0219919 -1.55892 -0.286324 38 14 2
-1.527 -1.53201 -0.864567 152 97 82
-1.18783 -1.61261 -0.536535 32 8 2
-0.149868 -1.4571 -0.505706 172 150 144
-1.46939 -1.1612 -1.31629 22 12 24
-1.37871 -1.05923 -1.38288 150 120 106
-1.454 -1.13646 -1.06342 157 139 118
-1.42561 -0.93035 -1.00689 104 63 28
-1.49874 -1.22888 -0.895296 106 67 54
-1.53832 -1.54954 -0.810597 164 110 87
-1.57603 -1.50421 -0.694774 157 145 98
-1.37203 -1.19526 -0.875947 169 120 97
-1.40653 -1.34718 -0.835453 82 38 20
-1.23383 -1.34009 -0.894549 150 103 93
-1.23133 -1.42183 -0.792918 152 104 82
-1.34427 -1.30569 -0.524615 128 78 46
-1.35146 -1.55611 -0.5057 45 20 6
-1.13536 -1.41413 -0.77084 152 100 86
-0.78769 -1.24906 -0.891914 92 68 58
-1.04681 -1.51548 -0.507452 142 122 96
-0.622055 -1.36789 -0.939479 44 31 16
-0.564847 -1.3506 -0.909252 84 68 62
-0.48651 -1.35801 -0.790457 101 80 71
-0.440496 -1.51059 -0.340477 43 14 6
-0.587659 -1.89246 -0.333078 102 81 46
-0.463358 -1.582 -0.295666 158 140 118
-0.41889 -1.52263 -0.348474 50 29 12
-0.41889 -1.52263 -0.348474 50 29 12
-0.409969 -1.48828 -0.2956 116 94 64
-0.575993 -1.9404 -0.388523 101 90 70
-0.475138 -1.70872 -0.375788 198 166 148
-0.463834 -1.72696 -0.302073 98 24 9
-0.512928 -1.90593 -0.432331 102 64 26
-0.44173 -1.71946 -0.314001 100 32 11
-0.500473 -1.91697 -0.435968 151 116 94
-0.332762 -1.55351 -0.184044 42 22 8
-0.417705 -1.74892 -0.200963 152 150 99
-0.371277 -1.64567 -0.195513 65 50 24
-0.144629 -1.36222 -0.527641 178 150 144
-0.264729 -1.5912 -0.441294 69 28 12
-0.346927 -1.81476 -0.303955 156 130 116
-0.330918 -1.80192 -0.360525 82 82 66
-0.337375 -1.82616 -0.358369 90 88 70
-0.156335 -1.50265 -0.508211 202 162 144
-0.210176 -1.61306 -0.432952 182 156 136
-0.231274 -1.70667 -0.454785 62 25 12
-0.17381 -1.58793 -0.418723 20 19 16
-0.155398 -1.58156 -0.453429 174 144 130
-0.246084 -1.75527 -0.393047 19 17 21
-0.274336 -1.82421 -0.419539 116 22 0
-0.348662 -2.00191 -0.500267 64 40 30
-0.386367 -2.07673 -0.381557 174 132 110
-0.465508 -2.20074 -0.248616 152 144 104
-0.171597 -1.65062 -0.390089 166 113 92
-0.128889 -1.57977 -0.420516 114 101 84
-0.234585 -1.79326 -0.397301 22 11 12
-0.167404 -1.68796 -0.422985 72 27 11
-0.213919 -1.78505 -0.413728 38 16 7
-0.170324 -1.69912 -0.413509 191 125 96
-0.315069 -2.01266 -0.485347 157 137 130
-0.170536 -1.74046 -0.416147 56 25 19
-0.155778 -1.72068 -0.361448 67 26 14
-0.195482 -1.80368 -0.298188 12 6 6
-0.231242 -1.85708 -0.127764 53 14 3
-0.292765 -2.04988 -0.514383 186 169 166
-0.412479 -2.24016 -0.22122 112 80 44
-0.309999 -2.0811 -0.445514 194 178 175
-0.284463 -2.05077 -0.475071 193 176 172
-0.202535 -1.85763 -0.145354 20 8 6
-0.117457 -1.73652 -0.369211 58 26 8
-0.26301 -2.0409 -0.491914 178 159 154
-0.31725 -2.17044 -0.593883 146 106 86
-0.129449 -1.78117 -0.342649 106 62 43
0.0460876 -1.47555 -0.419067 98 70 58
0.0460876 -1.47555 -0.419067 98 70 58
-0.0954837 -1.7329 -0.251391 140 72 46
-0.165253 -1.8809 -0.139734 153 146 98
-0.134542 -1.85038 -0.360053 178 150 129
0.0740784 -1.4594 -0.378388 38 22 10
-0.0640298 -1.69661 -0.176706 142 79 55
-0.101469 -1.81334 -0.356054 56 30 10
-0.257941 -2.16526 -0.501612 93 70 51
-0.192064 -2.06205 -0.41745 92 106 88
-0.178967 -2.0441 -0.392079 91 94 78
-0.206124 -2.1043 -0.43633 121 78 55
-0.178457 -2.06379 -0.411435 158 141 124
-0.178457 -2.06379 -0.411435 158 141 124
-0.166244 -2.0575 -0.386266 100 100 86
-0.184313 -2.0998 -0.4223 155 136 129
-0.181916 -2.12097 -0.41454 100 56 31
-0.129986 -2.06429 -0.351427 137 94 81
-0.151697 -2.16176 -0.210515 154 129 106
-0.128605 -2.12233 -0.291127 108 100 68
-0.150349 -2.16568 -0.183986 101 70 33
-0.137573 -2.15461 -0.218291 104 72 37
-1.43353 -1.20865 -1.33951 26 15 29
-1.52449 -1.14109 -0.844304 166 138 110
-1.38315 -1.37553 -0.923974 94 46 24
-1.39055 -1.36163 -0.897522 96 53 28
-1.2071 -1.37705 -0.918954 135 94 80
-1.40456 -1.25751 -0.3711 115 74 46
-1.3019 -1.60455 -0.57189 64 18 2
-0.931952 -0.955688 -0.873153 164 140 130
-0.931952 -0.955688 -0.873153 164 140 130
-1.29539 -1.65594 -0.5286 90 58 41
-1.03367 -1.04185 -0.708744 195 144 120
-0.9919 -1.07324 -0.78243 226 174 135
-1.05358 -1.40856 -0.554751 29 8 1
-0.756575 -1.33059 -0.981159 128 104 96
-0.743926 -1.40677 -1.0202 154 126 114
-0.711368 -1.09661 -0.881396 143 106 98
-0.635208 -1.39664 -0.954787 90 86 71
-0.47112 -1.3354 -0.788904 106 86 77
-0.471676 -1.34353 -0.78056 146 128 122
-0.477105 -1.37431 -0.782722 104 88 76
-0.461296 -1.40479 -0.227074 150 138 118
-0.409996 -1.46617 -0.450779 94 64 32
-0.681273 -1.99961 -0.191165 145 138 90
-0.600228 -1.9018 -0.298644 100 90 64
-0.393318 -1.42318 -0.301755 142 114 95
-0.470863 -1.61889 -0.316496 160 137 114
-0.56524 -1.88414 -0.357068 98 69 31
-0.474687 -1.69074 -0.37458 170 138 123
-0.495299 -1.6873 -0.155155 145 142 92
-0.408846 -1.59494 -0.321808 154 126 108
-0.464288 -1.7418 -0.355681 172 132 108
-0.352942 -1.50132 -0.254746 94 74 42
-0.386162 -1.6315 -0.293203 102 80 64
-0.321927 -1.45924 -0.215367 68 41 14
-0.467915 -1.92652 -0.487969 100 58 26
-0.398433 -1.64427 -0.204312 18 26 14
-0.398433 -1.64427 -0.204312 18 26 14
-0.424279 -1.93943 -0.497779 138 94 72
-0.314874 -1.67788 -0.293238 161 130 117
-0.215237 -1.49091 -0.290935 184 160 150
-0.331039 -1.79624 -0.345773 82 82 66
-0.112085 -1.43744 -0.555476 194 143 107
-0.317602 -1.85714 -0.409784 109 28 17
-0.191687 -1.61 -0.423884 42 28 20
-0.470395 -2.16447 -0.231933 155 132 102
-0.344229 -2.04572 -0.509176 174 148 142
-0.159047 -1.64785 -0.396514 132 86 66
-0.339704 -2.05328 -0.503344 86 63 54
-0.342737 -2.0815 -0.507331 94 71 64
-0.319646 -2.03439 -0.505621 85 67 60
-0.412071 -2.16936 -0.255192 126 80 48
-0.333546 -2.07649 -0.506631 81 62 55
-0.330618 -2.07339 -0.493508 95 78 71
-0.332991 -2.10834 -0.486841 198 174 166
-0.117985 -1.79848 -0.366812 126 70 44
-0.277687 -2.14222 -0.497903 152 108 85
-0.158658 -2.01909 -0.394836 108 74 52
-0.151563 -2.04169 -0.386756 176 152 140
-0.160649 -2.14365 -0.347522 110 78 48
-0.154792 -2.15988 -0.365164 106 66 36
-1.46079 -1.34485 -1.26985 66 10 0
-1.60881 -1.33864 -0.921342 170 144 128
-1.52569 -1.51122 -0.859876 147 88 73
-1.37935 -1.38022 -0.930443 90 47 22
-1.15604 -1.43209 -0.819969 106 58 44
-0.792475 -1.25753 -0.898062 158 134 121
-0.785416 -1.2606 -0.894743 158 134 122
-0.665654 -1.34247 -0.974546 60 45 40
-0.655475 -1.89522 -1.26778 150 141 118
-0.619598 -1.93729 -0.294549 99 92 70
-0.277448 -1.55227 -0.380599 162 124 107
-0.369036 -1.79558 -0.258504 80 78 51
-0.132342 -1.62958 -0.403397 118 94 76
-0.32147 -2.07792 -0.470495 171 153 148
-0.0993421 -1.72497 -0.31073 157 142 119
-0.143503 -1.8514 -0.332337 140 102 64
-4.3026 3.45411 2.96849 163 141 126
-2.36566 1.09046 0.638694 22 18 32
-2.49079 1.22979 0.867654 126 120 126
-2.49079 1.22979 0.867654 126 120 126
-2.24369 0.799952 0.466672 23 20 36
-2.21203 0.763862 0.443439 128 124 132
-2.62515 1.1319 1.27302 86 13 10
-1.47331 -0.474079 -0.873163 132 13 13
-1.71143 -0.0590369 -0.3507 130 22 22
-1.71143 -0.0590369 -0.3507 130 22 22
-1.9472 -0.454767 -0.127173 158 143 123
-1.94531 -0.783774 -0.153535 34 12 8
-1.46609 -0.782108 -0.846707 100 64 35
-1.94531 0.0326085 0.296528 161 118 60
-1.64161 -0.898668 -0.516719 72 32 16
-1.77375 -0.958807 -0.288045 106 55 40
-1.37593 -0.824147 -0.857528 126 78 56
-1.53139 -0.835578 -0.48532 196 155 133
-1.59203 -1.12137 -0.383456 160 116 100
-1.54435 -1.21865 -0.460678 93 54 24
-1.49393 -1.02273 -0.403998 94 55 29
-1.48701 -0.927998 -0.345424 120 68 49
-1.42809 -0.897236 -0.417263 100 56 36
-1.19413 -0.990463 -0.892622 140 92 73
-1.34416 -1.45593 -0.819357 100 70 41
-1.33951 -1.46227 -0.813039 162 152 130
-1.15276 -1.02785 -0.885675 76 34 23
-1.34673 -0.983494 -0.390381 178 122 103
-1.12709 -1.17587 -0.935595 74 26 14
-1.12709 -1.17587 -0.935595 74 26 14
-1.28773 -1.06222 -0.450267 66 24 12
-1.06197 -1.20636 -1.04997 165 138 130
-1.29963 -1.30419 -0.509954 144 100 74
-1.08448 -1.17558 -0.942711 198 150 119
-1.08448 -1.17558 -0.942711 198 150 119
-1.26973 -1.2825 -0.482428 106 70 40
-1.29129 -1.63097 -0.748495 51 27 5
-1.30727 -1.63739 -0.702579 31 12 5
-1.30073 -1.74113 -0.764558 156 152 106
-1.28716 -1.6383 -0.670127 64 13 2
-1.28716 -1.6383 -0.670127 64 13 2
-1.23606 -1.57079 -0.723627 80 35 10
-1.17865 -1.2623 -0.552699 154 102 90
-1.01822 -1.24422 -0.964362 114 62 35
-1.07273 -1.29881 -0.855653 174 126 107
-1.1267 -1.32776 -0.666337 120 72 50
-0.990174 -1.24012 -0.972844 186 133 106
-1.00644 -1.24987 -0.931571 175 119 99
-0.99384 -1.25136 -0.957299 108 58 32
-1.11751 -1.33122 -0.651004 108 66 42
-1.00199 -1.27786 -0.917277 182 132 110
-1.14089 -1.65052 -0.703735 32 12 7
-0.929623 -1.35379 -0.976982 154 115 99
-0.929623 -1.35379 -0.976982 154 115 99
-1.03372 -1.53035 -0.797376 72 46 29
-0.895889 -1.38108 -1.0037 102 66 38
-1.06187 -1.63106 -0.734249 142 95 74
-1.03074 -1.59649 -0.750372 157 110 90
-0.825473 -1.2548 -0.914995 92 73 60
-0.825473 -1.2548 -0.914995 92 73 60
-0.825473 -1.2548 -0.914995 92 73 60
-0.809155 -1.25842 -0.921083 88 66 60
-0.861618 -1.43845 -1.0192 102 69 38
-0.812759 -1.26978 -0.92433 154 134 121
-0.803068 -1.26158 -0.929962 96 72 66
-0.803068 -1.26158 -0.929962 96 72 66
-0.833367 -1.38529 -1.00858 160 140 126
-0.870967 -1.50097 -1.0201 98 74 35
-0.775431 -1.25601 -0.940686 148 123 110
-0.833397 -1.43748 -1.03512 166 144 131
-0.796639 -1.31153 -0.951281 154 132 116
-0.801004 -1.33016 -0.94404 158 134 118
-0.793129 -1.32596 -0.944366 114 30 24
-0.778571 -1.28964 -0.897195 136 25 18
-0.766224 -1.33379 -1.015 144 26 24
-0.811671 -1.37871 -0.855582 139 26 22
-0.682115 -1.30101 -0.905514 144 24 22
-0.668676 -1.29526 -0.944929 44 33 30
-0.667825 -1.3067 -0.944043 50 38 32
-0.658579 -1.30158 -0.974608 127 109 103
-0.642251 -1.32514 -1.12658 156 128 126
-0.699588 -1.43106 -1.03555 144 20 20
-0.662007 -1.31979 -0.945144 58 44 39
-0.651507 -1.31779 -0.97147 24 11 6
-0.638404 -1.34286 -1.12224 66 38 38
-0.652517 -1.32432 -0.943283 69 58 56
-0.65135 -1.34291 -0.957514 138 125 124
-0.627299 -1.35807 -1.09918 134 96 96
-0.647909 -1.35151 -0.882731 44 13 8
-0.635849 -1.35186 -0.900741 45 31 18
-0.627 -1.3556 -0.962929 146 23 21
-0.629588 -1.36174 -0.895184 86 81 65
-0.616603 -1.38194 -0.983786 138 118 107
-0.623632 -1.38213 -0.899873 42 12 8
-0.605189 -1.39039 -0.921743 60 38 26
-0.593134 -1.38866 -0.984926 60 44 38
-0.59343 -1.39503 -1.00151 132 116 110
-0.591561 -1.40156 -0.989028 68 52 46
-0.585148 -1.40025 -1.01068 32 17 12
-0.586229 -1.40294 -0.99519 144 130 124
-0.584299 -1.42016 -1.08112 134 32 33
-0.577011 -1.40275 -0.96148 129 113 112
-0.575703 -1.40904 -1.02054 170 158 156
-0.586137 -1.44686 -1.02114 158 136 135
-0.552478 -1.47246 -1.0636 152 134 122
-0.5644 -1.50058 -1.03371 78 54 46
-0.560622 -1.51115 -1.02501 202 184 178
-0.628574 -1.6805 -1.03518 92 80 58
-0.648056 -1.73426 -0.99553 108 78 48
-0.614713 -1.70128 -0.98171 104 70 49
-0.75007 -1.96411 -1.02866 164 162 114
-0.619093 -1.73453 -0.979926 134 83 54
-0.552732 -1.63267 -1.08835 71 34 16
-0.605883 -1.75198 -0.934403 150 120 103
-0.597406 -1.7391 -0.928699 20 14 8
-0.547316 -1.64818 -1.09633 144 120 105
-0.608395 -1.76996 -0.929267 160 128 110
-0.599431 -1.76019 -0.918182 150 124 108
-0.541369 -1.65303 -1.07805 134 122 112
-0.728833 -2.02022 -0.766846 164 156 109
-0.728833 -2.02022 -0.766846 164 156 109
-0.727233 -2.01635 -0.781274 124 72 40
-0.59015 -1.75949 -0.955466 76 40 14
-0.734144 -2.04584 -0.663506 126 68 28
-0.726251 -2.02635 -0.776172 130 74 47
-0.712721 -2.00757 -0.781606 164 156 117
-0.573967 -1.75298 -0.84294 88 60 28
-0.584214 -1.76272 -0.981675 136 106 88
-0.571166 -1.74997 -0.975614 172 136 118
-0.607445 -1.83494 -0.809978 154 122 104
-0.574482 -1.76762 -0.940455 34 18 9
-0.681767 -1.97288 -0.774974 162 158 116
-0.683878 -1.97964 -0.753383 87 66 36
-0.697563 -2.01562 -0.709123 86 74 54
-0.691822 -2.00301 -0.744384 76 74 52
-0.615521 -1.8682 -0.819895 97 56 34
-0.66667 -1.96983 -0.713732 98 69 36
-0.636738 -1.90702 -0.858554 163 158 114
-0.622564 -1.89171 -0.844173 91 19 11
-0.578411 -1.81376 -0.899922 144 116 103
-0.578411 -1.81376 -0.899922 144 116 103
-0.631171 -1.91409 -0.861735 86 38 14
-0.593519 -1.84989 -0.831362 152 124 112
-0.537546 -1.73898 -0.976822 132 112 92
-0.635845 -1.92862 -0.841883 121 65 33
-0.635845 -1.92862 -0.841883 121 65 33
-0.634492 -1.93194 -0.817175 164 160 110
-0.59689 -1.87066 -0.822653 161 127 109
-0.59689 -1.87066 -0.822653 161 127 109
-0.575232 -1.82664 -0.880272 44 11 0
-0.600441 -1.88095 -0.816888 98 46 20
-0.594749 -1.87649 -0.813305 167 128 108
-0.57348 -1.8314 -0.941219 46 32 10
-0.598601 -1.89472 -0.786262 96 43 22
-0.573473 -1.85621 -0.839817 140 106 88
-0.614085 -1.93415 -0.81556 108 46 24
-0.536982 -1.83387 -0.497644 107 48 26
-0.573638 -1.85843 -0.858179 36 31 16
-0.614982 -1.95558 -0.814395 170 150 110
-0.597371 -1.92465 -0.828612 86 50 24
-0.579932 -1.89398 -0.863176 72 41 16
-0.558594 -1.84122 -0.989831 114 104 75
-0.591314 -1.91809 -0.84259 162 154 113
-0.654013 -2.05986 -0.676857 102 62 32
-0.611137 -1.99699 -0.694536 142 125 115
-0.597231 -1.98572 -0.713082 142 116 106
-0.681084 -2.13473 -0.765322 102 85 48
-0.458709 -1.70256 -1.04261 150 114 102
-0.45893 -1.71258 -1.03804 113 72 54
-0.610191 -2.04384 -0.624154 146 106 84
-0.485146 -1.77838 -0.941054 124 99 91
-0.51756 -1.84182 -0.915345 69 52 36
-0.579808 -1.99826 -0.679857 94 66 56
-0.567405 -1.9591 -0.875966 54 43 8
-0.432015 -1.68246 -1.10779 146 119 114
-0.437498 -1.71556 -0.996821 147 104 86
-0.533942 -1.91795 -0.835603 54 46 28
-0.465514 -1.78217 -0.938008 32 7 1
-0.422625 -1.69818 -1.07739 134 85 70
-0.568853 -2.03361 -0.638976 91 46 22
-0.568853 -2.03361 -0.638976 91 46 22
-0.548802 -1.99535 -0.67771 114 12 10
-0.563601 -2.0307 -0.639008 138 93 71
-0.563601 -2.0307 -0.639008 138 93 71
-0.541869 -1.99209 -0.698312 130 92 82
-0.464687 -1.83195 -0.870216 183 118 92
-0.516427 -1.94243 -0.811496 119 94 81
-0.42145 -1.7345 -1.04509 114 70 51
-0.529275 -1.9977 -0.680235 94 14 16
-0.52509 -1.99189 -0.681221 34 5 5
-0.490722 -1.92163 -0.804662 160 132 120
-0.418169 -1.75023 -1.0287 73 30 13
-0.514346 -1.99882 -0.681918 134 108 100
-0.514346 -1.99882 -0.681918 134 108 100
-0.398813 -1.73807 -1.04756 166 144 135
-0.438821 -1.84218 -0.901902 129 82 60
-0.420439 -1.80368 -0.943734 178 150 137
-0.491934 -1.97994 -0.699732 156 130 122
-0.485592 -1.97013 -0.704029 84 46 26
-0.515178 -2.04464 -0.641168 160 133 125
-0.515178 -2.04464 -0.641168 160 133 125
-0.41105 -1.79614 -0.968152 126 107 95
-0.395774 -1.7563 -1.02246 155 114 96
-0.427875 -1.8495 -0.900595 144 102 88
-0.464613 -1.9353 -0.811635 110 12 8
-0.56869 -2.16512 -0.624928 111 70 42
-0.399136 -1.7894 -0.988289 191 169 158
-0.399136 -1.7894 -0.988289 191 169 158
-0.510908 -2.06169 -0.640413 102 58 34
-0.449213 -1.9204 -0.812561 161 73 52
-0.420569 -1.88379 -0.829274 12 8 10
-0.419755 -1.86428 -0.902397 132 92 80
-0.433825 -1.91391 -0.81986 156 64 39
-0.575773 -2.20363 -0.630101 166 150 109
-0.56769 -2.19424 -0.622488 157 130 98
-0.559069 -2.18406 -0.619706 157 108 86
-0.398365 -1.83417 -0.926973 135 88 72
-0.44819 -1.95618 -0.787372 110 24 20
-0.440091 -1.94515 -0.792208 114 12 8
-0.407644 -1.86394 -0.89456 23 8 4
-0.56356 -2.20568 -0.624002 102 62 28
-0.400017 -1.84426 -0.966761 27 14 12
-0.448187 -2.00384 -0.693581 160 138 128
-0.427534 -1.95763 -0.754189 92 39 28
-0.431637 -1.95631 -0.786534 154 91 72
-0.577581 -2.25943 -0.581857 162 153 106
-0.378446 -1.81552 -0.993699 180 159 148
-0.392218 -1.84904 -0.953188 124 95 79
-0.392218 -1.84904 -0.953188 124 95 79
-0.401563 -1.89276 -0.869239 120 90 84
-0.402402 -1.91245 -0.840776 140 91 73
-0.40071 -1.904 -0.861415 46 20 16
-0.536367 -2.21484 -0.582621 210 158 136
-0.382372 -1.88367 -0.878777 48 20 14
-0.382372 -1.88367 -0.878777 48 20 14
-0.519747 -2.2095 -0.551004 126 75 43
-0.352133 -1.77703 -1.06832 126 94 78
-0.37367 -1.87527 -0.920143 178 154 138
-0.510435 -2.19662 -0.60823 130 82 60
-0.530994 -2.25191 -0.571503 219 174 150
-0.37481 -1.90099 -0.887933 128 86 64
-0.341732 -1.79081 -1.06445 187 154 142
-0.352386 -1.84662 -0.966393 174 148 136
-0.343719 -1.79877 -1.06812 144 98 84
-0.485001 -2.20103 -0.548142 15 10 10
-0.409149 -2.04088 -0.667024 154 134 128
-0.407188 -2.03669 -0.670294 105 85 80
-0.517623 -2.24637 -0.593647 122 84 56
-0.36599 -1.89869 -0.907236 74 48 22
-0.355968 -1.85728 -1.00487 136 93 72
-0.398576 -2.03402 -0.677554 102 84 77
-0.404627 -2.04371 -0.678232 175 156 151
-0.331967 -1.79642 -1.08207 40 18 10
-0.331238 -1.8124 -1.06867 138 92 70
-0.423358 -2.10268 -0.638732 120 84 68
-1.58012 -1.29468 -0.923626 38 12 7
-0.480852 -1.7954 -0.22046 168 148 102
-1.44515 -1.64067 -1.47518 160 147 126
-1.36973 -1.43471 -1.4786 29 19 26
-1.39153 -1.35894 -0.89667 95 51 25
-4.55346 3.67338 3.45362 152 123 118
-1.55488 -1.31811 -1.41263 120 22 13
-1.53232 -1.40435 -1.41768 143 43 29
-1.54485 -1.51782 -1.38169 161 144 124
-1.46572 -1.31423 -1.45856 102 3 5
-1.44111 -1.15977 -1.42763 60 36 45
-1.49314 -1.46578 -1.31861 116 14 12
-1.30444 -1.0571 -1.32256 114 20 18
-1.43113 -1.15609 -1.18017 160 140 124
-1.46935 -1.32551 -0.974767 95 44 31
-1.50957 -1.53152 -0.836977 112 56 35
-1.17199 -1.37848 -0.848423 178 121 103
-1.31543 -1.33019 -0.548852 80 31 7
-1.08844 -1.19567 -0.694448 166 113 93
-1.07924 -1.32371 -0.437468 170 150 126
-0.870234 -1.27401 -0.759015 111 64 46
-0.794008 -1.25084 -0.840997 153 119 108
-0.68621 -1.07792 -0.882201 68 30 24
-0.588543 -1.81728 -1.26909 73 40 16
-0.705451 -1.73602 -0.99991 144 136 114
-0.705451 -1.73602 -0.99991 144 136 114
-0.830863 -1.14181 -0.448138 90 66 30
-0.530975 -1.35649 -0.793568 150 131 116
-0.652486 -1.95897 -0.264315 94 68 26
-0.371236 -1.55303 -0.595775 92 57 29
-0.671234 -1.98766 -0.202525 104 66 28
-0.40988 -1.4929 -0.322821 113 89 56
-0.466777 -1.64504 -0.334206 154 124 108
-0.563317 -1.9569 -0.413487 156 132 118
-0.467993 -1.85908 -0.336577 156 140 104
-0.174595 -1.2799 -0.457425 212 188 182
-0.196239 -1.3104 -0.366834 251 236 230
-0.449366 -1.7729 -0.131961 158 146 107
-0.347509 -1.56405 -0.114258 94 78 49
-0.361833 -1.65801 -0.198268 128 122 78
-0.304902 -1.67549 -0.42932 206 143 107
-0.353666 -1.73688 -0.244164 148 140 100
-0.34741 -1.7673 -0.286165 78 84 65
-0.277117 -1.67724 -0.411082 132 76 51
-0.432754 -2.07853 -0.492002 192 152 130
-0.235754 -1.71987 -0.561094 184 157 138
-0.35112 -2.0247 -0.470388 102 75 67
-0.352042 -2.09459 -0.493953 86 65 57
-0.313445 -2.02579 -0.492421 89 71 63
-0.336529 -2.07907 -0.496432 126 106 100
-0.257695 -1.85871 -0.340831 169 142 132
-0.247003 -1.81935 -0.126376 66 26 11
-0.332024 -2.12001 -0.477467 138 102 84
-0.184023 -1.78716 -0.331658 144 77 44
-0.0161348 -1.50352 -0.463456 140 105 90
-0.277763 -2.05547 -0.496848 111 92 86
-0.307877 -2.1193 -0.4959 118 94 86
-0.219992 -1.95856 -0.464453 78 26 13
-0.0893098 -1.66269 -0.248289 151 130 112
-0.0893098 -1.66269 -0.248289 151 130 112
-0.0582844 -1.57662 -0.0864912 30 20 12
-0.0582844 -1.57662 -0.0864912 30 20 12
-0.0746819 -1.6376 -0.180905 150 138 117
-0.15088 -1.85052 -0.308172 112 86 60
-0.147274 -1.86196 -0.362811 134 96 60
-0.0220354 -1.48786 0.109228 152 140 116
-0.311753 -2.13254 -0.0608315 116 104 65
-0.290765 -2.11485 0.0221826 106 87 55
-0.290765 -2.11485 0.0221826 106 87 55
-0.26509 -2.11976 0.0405906 138 108 82
0.0286445 -1.63496 -0.260378 153 136 115
-0.191208 -2.14513 -0.526074 124 88 70
-0.180084 -2.13863 -0.489672 162 136 122
-0.145058 -2.12318 -0.426951 113 20 15
-0.145058 -2.12318 -0.426951 113 20 15
-0.126273 -2.15797 -0.257658 98 74 35
-1.4276 -0.994338 -1.42649 146 27 18
-1.26578 -1.69214 -0.516626 92 64 46
-0.755681 -1.42622 -1.08026 114 83 69
-1.00146 -1.50294 -0.535964 154 145 115
-0.191894 -1.53935 -0.403237 160 127 107
-0.349189 -2.03681 -0.5084 77 54 44
-0.324035 -1.83976 -0.14207 116 66 40
0.022524 -1.4158 -0.453644 134 106 89
-1.55397 -1.43212 -1.37849 182 66 66
-1.41051 -1.03178 -1.42206 138 12 12
-1.45992 -1.32376 -1.22437 134 93 34
-1.3746 -1.08619 -1.27655 158 136 119
-1.36978 -1.31612 -0.485409 97 62 27
-1.26461 -1.49334 -0.522076 80 30 10
-0.173946 -1.87827 -0.13014 34 16 4
-0.0485535 -1.67053 -0.164485 128 82 58
