ply
format ascii 1.0
element vertex 1177
property float x
property float y
property float z
property uchar red
property uchar green
property uchar blue
end_header
-0.991767 -1.15839 0.555374 0 255 0
-0.935066 -1.08828 0.682929 0 255 0
-1.10083 -1.22282 0.370176 0 255 0
-1.18198 -1.19124 0.417567 0 255 0
-1.03073 -1.22275 0.537085 0 255 0
-0.927938 -1.08153 0.75755 0 255 0
-0.91054 -1.05764 0.80427 0 255 0
-0.969714 -1.10525 0.780314 0 255 0
-1.01713 -1.12153 0.557929 0 255 0
-0.67949 -0.969184 -0.497546 148 98 38
-0.760353 -0.907955 -0.404977 164 144 125
-0.623099 -0.958285 -0.526775 148 118 102
-0.867469 -0.692273 -0.543096 130 122 84
-0.939189 -0.633384 -0.495418 64 34 14
-0.867839 -0.627666 -0.485191 50 7 2
-0.828092 -0.623479 -0.480529 128 73 52
-0.814185 -0.599796 -0.49868 46 16 8
-0.825851 -0.598032 -0.458328 152 144 94
-0.716552 -0.570957 -0.506231 100 66 30
-0.477991 -0.671455 -0.490234 105 54 24
-0.792332 -0.402698 -0.375547 90 58 42
-0.792597 -0.394893 -0.367237 114 79 64
-0.63226 -0.408374 -0.343509 24 9 5
-0.655213 -0.383181 -0.342523 149 138 95
-0.461959 -0.639593 -0.235674 155 128 120
-0.397667 -0.469073 -0.382046 138 106 74
-0.383247 -0.426973 -0.421584 96 72 35
-0.482012 -0.598963 -0.134938 122 72 56
-0.255377 -0.343184 -0.15627 78 56 38
-0.441507 -0.132774 -0.0834575 122 85 43
-0.442072 -0.132855 -0.0833307 122 85 43
-0.313151 -0.192203 -0.108839 164 150 126
-0.433726 -0.165826 -0.0683972 96 48 16
-0.195312 -0.348566 -0.0530285 201 178 172
-0.238003 -0.343259 -0.0139374 135 86 64
-0.35169 -0.246406 0.049711 87 75 76
-0.453428 -0.162784 0.0618949 134 88 67
-0.330171 -0.262519 0.0618034 78 40 26
-0.218291 -0.334987 0.049445 174 140 126
-0.342796 -0.259313 0.065391 46 16 10
-0.404754 -0.232892 0.0802776 126 28 4
-0.290747 -0.225099 0.0390103 164 129 104
-0.327462 -0.264385 0.068265 159 122 102
-0.411886 -0.225568 0.0839412 172 88 60
-0.416654 -0.192081 0.0780091 160 134 122
-0.325657 -0.262859 0.0726323 100 66 60
-0.388881 -0.145862 0.0656073 156 138 127
-0.397 -0.196351 0.0935777 226 173 146
-0.397 -0.196351 0.0935777 226 173 146
-0.146875 -0.311769 0.0676915 182 155 139
-0.353217 -0.0511176 0.0570674 60 40 30
-0.330849 -0.195224 0.111092 175 140 118
-0.309839 -0.184705 0.123242 50 18 0
-0.13008 -0.14967 0.0769491 154 142 120
-0.345184 -0.155124 0.136321 110 88 48
-0.854122 -0.646114 -0.479178 176 111 88
-0.666664 -0.614463 -0.349405 82 30 14
-0.666438 -0.613888 -0.350062 82 30 14
-0.789962 -0.380691 -0.358075 94 66 44
-0.659057 -0.422667 -0.356234 121 74 59
-0.659207 -0.423162 -0.35584 121 74 59
-0.651145 -0.410486 -0.352171 148 100 85
-0.629339 -0.402531 -0.349297 26 12 9
-0.374079 -0.674658 -0.254723 140 102 91
-0.421237 -0.147637 0.0901726 50 15 4
-0.127834 -0.271628 0.0812353 44 22 12
-0.588106 -0.43582 -0.345985 90 63 37
-0.230266 -0.35399 -0.0368187 148 112 100
-0.527284 -0.240215 0.0745703 157 132 123
-0.413247 -0.191518 0.0219004 122 106 92
-0.618197 -0.0705614 0.104624 153 148 98
-0.272529 -0.227412 0.0580442 140 106 88
-0.139527 -0.287238 0.0819413 44 19 10
-0.508121 -0.248271 0.134811 152 130 120
-0.191077 -0.304795 0.0761571 137 103 88
-0.177293 -0.309525 0.0740518 188 158 142
-0.734013 -1.03295 -0.429477 170 122 73
-0.657616 -1.00349 -0.547189 146 117 104
-0.83271 -0.709507 -0.570149 97 55 28
-0.744983 -0.715318 -0.524969 66 22 12
-0.704665 -0.462895 -0.444011 100 68 30
-0.460588 -0.676742 -0.288031 160 132 121
-0.446892 -0.684946 -0.15746 190 170 161
-0.320655 -0.196567 -0.10978 72 44 18
-0.579864 -0.246127 0.0760598 154 122 108
-0.171953 -0.3793 0.0159358 122 73 66
-0.526441 -0.241554 0.139465 127 100 89
-0.565057 -0.227753 0.167285 239 224 212
-0.333902 -0.188126 0.123337 178 150 129
-0.333902 -0.188126 0.123337 178 150 129
-0.165612 0.655181 -0.105289 142 115 80
-0.688126 -0.979694 -0.509748 122 62 16
-0.629881 -0.400799 -0.330741 66 36 12
-0.253589 -0.527502 -0.384055 142 124 117
-0.240999 -0.370214 -0.122988 101 26 28
-0.283976 -0.357659 -0.10872 139 64 40
-0.274508 -0.252054 -0.138285 110 66 42
-0.326345 -0.265035 -0.0930253 110 90 74
-0.17912 -0.381725 -0.0039127 116 64 58
-0.422869 -0.235204 0.0719722 168 77 52
-0.871224 -1.00172 0.471814 148 107 69
-0.338971 0.133439 0.0126869 138 108 96
-0.155077 -0.300129 0.0838552 174 122 105
-0.531758 -0.189496 0.183812 138 111 98
-0.950842 -0.909378 -0.3427 88 91 112
-0.34679 -0.639675 -0.111798 158 31 30
-0.34679 -0.639675 -0.111798 158 31 30
-0.298834 -0.145825 -0.115138 88 68 40
-0.183936 -0.381284 0.0176102 194 144 110
-0.183936 -0.381284 0.0176102 194 144 110
-0.242335 -0.231732 0.0835954 182 156 134
-0.722086 -0.686103 -0.389018 184 124 99
-0.71416 -0.6871 -0.383563 90 31 14
-0.71416 -0.6871 -0.383563 90 31 14
-0.662644 -0.634155 -0.361225 176 124 106
-0.728991 -0.406528 -0.35006 32 8 2
-0.725615 -0.316327 -0.361789 154 148 104
-0.301391 -0.27584 -0.12064 141 104 80
-0.230418 -0.371673 -0.0855034 104 78 76
-0.233188 -0.357067 -0.0362433 150 111 97
-0.210509 -0.371579 -0.0112148 126 84 68
-0.209882 -0.371067 -0.0113213 126 84 68
-0.217469 -0.357173 0.0105053 172 150 144
-0.168684 -0.37965 0.00240812 28 18 18
-0.168623 -0.379574 0.00229879 28 18 18
-0.178366 -0.166028 0.0217803 143 117 93
-0.599807 -0.427256 -0.342387 160 136 118
-0.602034 -0.425486 -0.33731 92 52 27
-0.420008 -0.531647 -0.162009 137 30 22
-0.293548 -0.279542 -0.169457 102 66 34
-0.281 -0.354783 -0.112312 140 62 38
-0.455859 -0.124337 -0.0611131 168 156 112
-0.395692 -0.158085 -0.051206 149 138 96
-0.241272 0.0409358 -0.1428 99 50 26
-0.404826 -0.159719 0.0669307 90 80 66
-0.112401 0.100237 -0.0295114 62 56 36
-0.783878 -0.593728 -0.49172 92 56 28
-0.736533 -0.663193 -0.376837 220 168 124
-0.665522 -0.567026 -0.365159 71 25 6
-0.672437 -0.517037 -0.394605 113 67 38
-0.588205 -0.459965 -0.370437 102 58 42
-0.5786 -0.456052 -0.369364 84 54 28
-0.465673 -0.685501 -0.219797 96 72 63
-0.4855 -0.591393 -0.144231 71 26 12
-0.334742 -0.261246 0.0681208 26 10 4
-0.303986 -0.230833 0.0936184 194 163 143
-0.160408 -0.304837 0.0773689 188 162 146
-0.105173 -0.267514 0.0740467 44 26 12
-0.74674 -0.954562 -0.491751 22 12 24
-0.661603 -1.01329 -0.511309 96 20 14
-0.671043 -1.00667 -0.490029 150 120 106
-0.67605 -0.988748 -0.504423 98 10 6
-0.702533 -0.965073 -0.457687 108 17 7
-0.64564 -0.956944 -0.498361 152 130 116
-0.704174 -0.816975 -0.548179 157 139 118
-0.804544 -0.725091 -0.570599 85 44 22
-0.833568 -0.699011 -0.561439 30 8 4
-0.600215 -0.825068 -0.639955 104 63 28
-0.744796 -0.707733 -0.558696 106 67 54
-0.74949 -0.707308 -0.528914 138 96 77
-0.742301 -0.723526 -0.485036 136 94 74
-0.69082 -0.758662 -0.490074 168 122 98
-0.88263 -0.596934 -0.461968 164 110 87
-0.671371 -0.722032 -0.539948 192 148 128
-0.869312 -0.545615 -0.515569 157 145 98
-0.750678 -0.677875 -0.449595 126 81 56
-0.674668 -0.696237 -0.522019 169 120 97
-0.747247 -0.645279 -0.480663 82 38 20
-0.727428 -0.555619 -0.523732 82 38 15
-0.725129 -0.55136 -0.535132 82 38 15
-0.676463 -0.669197 -0.398172 150 103 93
-0.683232 -0.665173 -0.375056 56 14 4
-0.701438 -0.503601 -0.557522 90 57 23
-0.68542 -0.449699 -0.631476 156 144 121
-0.698494 -0.596938 -0.382555 152 104 82
-0.700809 -0.60434 -0.369716 152 104 82
-0.683355 -0.478755 -0.574806 80 46 16
-0.592712 -0.562677 -0.546859 150 132 108
-0.677934 -0.496921 -0.518432 60 20 5
-0.681479 -0.453963 -0.552414 94 58 26
-0.669437 -0.588316 -0.355832 77 30 12
-0.676561 -0.580634 -0.358595 126 79 55
-0.680598 -0.519478 -0.417739 167 117 85
-0.509612 -0.620638 -0.476165 186 138 112
-0.773646 -0.412413 -0.445454 45 20 6
-0.651238 -0.578622 -0.353847 152 100 86
-0.672484 -0.518046 -0.394006 110 65 37
-0.680527 -0.511332 -0.385045 132 82 54
-0.680527 -0.511332 -0.385045 132 82 54
-0.472947 -0.627783 -0.445823 132 78 56
-0.450483 -0.59493 -0.470599 201 154 130
-0.590046 -0.451553 -0.371144 26 8 1
-0.460674 -0.661472 -0.259904 156 128 118
-0.449102 -0.658407 -0.250358 92 68 58
-0.6263 -0.40366 -0.333618 142 122 96
-0.484748 -0.586484 -0.247981 136 30 20
-0.509886 -0.645029 -0.139282 20 12 10
-0.411321 -0.613141 -0.192333 87 80 65
-0.921908 -1.07327 0.6586 92 32 16
-0.431913 -0.650406 -0.124704 44 31 16
-0.437571 -0.655738 -0.115122 44 31 16
-0.443304 -0.643619 -0.098339 56 40 28
-0.394941 -0.632294 -0.117712 84 68 62
-0.387368 -0.641211 -0.102743 175 160 158
-0.403696 -0.574606 -0.105096 154 136 121
-0.401573 -0.566162 -0.110087 153 137 118
-0.39729 -0.564614 -0.0997477 152 136 118
-0.329918 -0.536957 -0.167394 78 64 53
-0.371246 -0.357406 -0.248167 156 145 123
-0.350295 -0.548192 -0.118673 150 132 118
-0.341847 -0.562507 -0.113633 147 129 116
-0.352673 -0.55933 -0.106614 101 80 71
-0.35545 -0.562001 -0.102581 101 80 71
-0.347842 -0.543533 -0.115461 96 76 61
-0.178257 0.253775 -0.694306 92 92 52
-0.253446 -0.302443 -0.194324 122 100 78
-0.366849 -0.237579 -0.153244 155 146 125
-0.342975 -0.267667 -0.125645 43 14 6
-0.35385 -0.283542 -0.108064 43 14 6
-0.610392 -0.181536 -0.0200499 158 126 102
-0.583795 -0.192654 -0.0265949 96 90 69
-0.560519 -0.194875 -0.0355998 102 81 46
-0.559752 -0.191376 -0.0382453 102 81 46
-0.379181 -0.232498 -0.112592 158 140 118
-0.554744 -0.202116 -0.0295942 166 139 116
-0.339447 -0.268471 -0.110188 50 29 12
-0.339447 -0.268471 -0.110188 50 29 12
-0.391414 -0.237696 -0.0973155 72 42 18
-0.347428 -0.262211 -0.105954 98 71 42
-0.317678 -0.253951 -0.126749 112 92 56
-0.552108 -0.212998 -0.0210146 98 70 34
-0.626034 -0.128806 -0.0279092 154 138 118
-0.396306 -0.228291 -0.0973012 94 66 40
-0.31542 -0.244242 -0.131943 116 94 64
-0.566244 -0.214537 -0.0102492 160 134 116
-0.58093 -0.216705 0.000397991 101 90 70
-0.45371 -0.223613 -0.0654717 158 130 96
-0.442275 -0.249658 -0.0533745 198 166 148
-0.61084 -0.211421 0.0168717 152 128 108
-0.433144 -0.247554 -0.0512308 156 128 115
-0.435568 -0.240278 -0.0534893 52 30 22
-0.623941 -0.215321 0.0355147 106 66 34
-0.319401 -0.257781 -0.0993743 84 66 48
-0.338987 -0.285244 -0.0713704 84 66 48
-0.566962 -0.228289 0.0163821 84 68 59
-0.424513 -0.23398 -0.0557838 106 69 50
-0.435851 -0.201451 -0.0585101 98 24 9
-0.544146 -0.243623 0.0209082 102 64 26
-0.440961 -0.184331 -0.0651287 145 140 91
-0.42178 -0.223971 -0.0499906 164 128 108
-0.393527 -0.228316 -0.0565213 160 122 102
-0.424829 -0.208895 -0.049435 100 32 11
-0.542658 -0.23956 0.0288134 151 116 94
-0.543387 -0.242157 0.0307324 151 116 94
-0.380083 -0.222835 -0.0630746 60 28 12
-0.277967 -0.167855 -0.139857 120 106 74
-0.372841 -0.222858 -0.0606939 106 71 48
-0.389004 -0.200093 -0.0569712 9 6 4
-0.264245 -0.206827 -0.115725 69 42 17
-0.367489 -0.192044 -0.0611495 75 92 77
-0.278099 -0.304233 -0.0467283 145 118 106
-0.296282 -0.162045 -0.0976715 42 22 8
-0.412676 -0.133896 -0.0537611 152 150 99
-0.35009 -0.149449 -0.0766253 65 50 24
-0.257031 -0.359476 -0.0135398 114 65 43
-0.412301 -0.163678 -0.0265632 152 150 97
-0.243874 -0.355965 -0.0140513 198 174 170
-0.178267 -0.387937 -0.0212608 178 150 144
-0.311019 -0.297408 -3.56887e-05 69 28 12
-0.401305 -0.173481 -0.00360732 76 76 47
-0.401262 -0.173389 -0.00363757 76 76 47
-0.391384 -0.184695 0.000736812 88 76 58
-0.41856 -0.169565 0.00752268 77 85 64
-0.621182 -0.0797576 0.065201 152 148 92
-0.290226 -0.279596 0.0059931 116 85 70
-0.420816 -0.176508 0.0244885 156 130 116
-0.416014 -0.212498 0.0394087 82 82 66
-0.360533 -0.261087 0.0393797 123 86 68
-0.427517 -0.205241 0.0447736 90 88 70
-0.39666 -0.218699 0.0359031 163 132 122
-0.236011 -0.346808 0.0234046 202 162 144
-0.293902 -0.282769 0.0275663 182 156 136
-0.295013 -0.284145 0.0287339 182 156 136
-0.345428 -0.281528 0.0523776 67 24 9
-0.249704 -0.35562 0.0419048 111 63 37
-0.419748 -0.173583 0.0379544 166 136 126
-0.411046 -0.241239 0.0705804 142 48 24
-0.229804 -0.346504 0.0379898 116 71 46
-0.424398 -0.233462 0.0769137 127 17 7
-0.343957 -0.278037 0.0611806 62 25 12
-0.267189 -0.278371 0.0303319 20 19 16
-0.260235 -0.297928 0.0423281 174 144 130
-0.229517 -0.342169 0.0489837 176 130 110
-0.365055 -0.23658 0.0635999 19 17 21
-0.405946 -0.236117 0.0823226 116 22 0
-0.515329 -0.244712 0.134805 64 40 30
-0.518343 -0.250194 0.138699 64 40 30
-0.612206 -0.0681348 0.101876 152 146 95
-0.609823 -0.0740236 0.106299 98 60 22
-0.551803 -0.168998 0.127803 174 132 110
-0.527484 -0.24345 0.147646 170 144 137
-0.620977 -0.0688899 0.114686 152 144 104
-0.288586 -0.249155 0.0501802 166 113 92
-0.244335 -0.277746 0.0455394 114 101 84
-0.403385 -0.234061 0.0963465 82 21 4
-0.373681 -0.227059 0.0815874 22 11 12
-0.394432 -0.231952 0.0928478 76 20 6
-0.511853 -0.244761 0.152318 96 74 64
-0.426794 -0.13454 0.0679216 129 82 56
-0.534298 -0.238966 0.161957 82 59 50
-0.304809 -0.258962 0.0727741 72 27 11
-0.356255 -0.240213 0.0882162 32 16 9
-0.363102 -0.236534 0.0900665 38 16 7
-0.30954 -0.251437 0.0740077 191 125 96
-0.506153 -0.236462 0.152986 157 137 130
-0.396862 -0.180603 0.0855524 94 46 26
-0.49453 -0.232035 0.149708 157 136 127
-0.620694 -0.043082 0.126932 154 100 72
-0.538532 -0.230724 0.172818 93 75 70
-0.326234 -0.243834 0.0903644 56 25 19
-0.397107 -0.203617 0.104442 166 113 94
-0.306601 -0.216855 0.0780278 67 26 14
-0.256542 -0.215566 0.0610466 39 14 4
-0.349388 -0.164481 0.0802203 12 6 6
-0.364998 -0.0525394 0.0476777 53 14 3
-0.515751 -0.246333 0.184279 186 169 166
-0.548868 -0.219412 0.190495 230 213 209
-0.611075 -0.0417981 0.146483 112 80 44
-0.52863 -0.202144 0.17561 194 178 175
-0.581402 -0.0641228 0.145531 173 140 117
-0.351339 -0.177368 0.0987877 158 86 59
-0.50742 -0.221384 0.178742 193 176 172
-0.407858 -0.135936 0.110717 22 10 2
-0.325737 0.0173273 0.0264719 158 115 98
-0.355428 -0.062165 0.0643956 20 8 6
-0.248981 -0.221217 0.0824554 184 156 134
-0.299486 -0.217411 0.101959 54 20 4
-0.296332 -0.214199 0.100649 58 26 8
-0.495394 -0.230287 0.186294 178 159 154
-0.583429 -0.26922 0.238439 146 106 86
-0.422243 -0.128235 0.12495 175 155 149
-0.316051 -0.189587 0.107193 106 62 43
-0.345911 -0.0590394 0.070649 17 9 5
-0.345917 -0.189177 0.123915 176 142 120
-0.126211 -0.28696 0.0756568 98 70 58
-0.126211 -0.28696 0.0756568 98 70 58
-0.271661 -0.14511 0.0830279 140 72 46
-0.102647 -0.270278 0.0715356 190 166 152
-0.3476 -0.0508673 0.08741 153 146 98
-0.348409 -0.185811 0.136286 178 150 129
-0.102751 -0.265101 0.0720785 38 22 10
-0.233597 -0.105777 0.0647621 142 79 55
-0.220543 -0.111124 0.0634939 125 84 64
-0.483556 -0.207606 0.198637 132 18 18
-0.306752 -0.183215 0.127153 176 149 126
-0.164621 -0.144614 0.0603287 87 54 26
-0.318461 -0.188784 0.134208 56 30 10
-0.125467 -0.249784 0.086039 138 80 53
-0.544668 -0.210788 0.239807 93 70 51
-0.137344 -0.200228 0.0889076 112 80 52
-0.44982 -0.184777 0.200546 165 146 138
-0.464388 -0.177142 0.207316 92 106 88
-0.448776 -0.165711 0.200504 91 94 78
-0.489737 -0.180339 0.222254 121 78 55
-0.492339 -0.186199 0.225531 121 78 55
-0.47968 -0.178374 0.219285 154 136 125
-0.458637 -0.172616 0.212436 158 141 124
-0.458637 -0.172616 0.212436 158 141 124
-0.428969 -0.164555 0.2032 102 66 42
-0.494213 -0.179079 0.231292 164 122 98
-0.448034 -0.158627 0.209711 100 100 86
-0.489153 -0.173366 0.231005 112 67 42
-0.476833 -0.17163 0.226416 155 136 129
-0.465536 -0.162648 0.22235 115 102 88
-0.487543 -0.17236 0.233547 166 122 102
-0.434828 -0.153359 0.21196 118 88 65
-0.483482 -0.162582 0.234121 100 56 31
-0.429631 -0.152756 0.214695 154 134 112
-0.414873 -0.133752 0.20628 82 54 21
-0.41521 -0.134404 0.206476 82 54 21
-0.482571 -0.15956 0.241037 120 78 50
-0.414682 -0.116334 0.204704 150 132 112
-0.414682 -0.116334 0.204704 150 132 112
-0.443137 -0.147168 0.228052 96 30 22
-0.430886 -0.134127 0.219657 137 94 81
-0.469851 0.0274695 0.185995 162 137 115
-0.478318 -0.143225 0.243113 152 136 124
-0.433118 -0.111018 0.222249 167 128 95
-0.465188 0.0377253 0.189291 99 64 26
-0.427773 -0.110513 0.225158 86 60 22
-0.430683 -0.0955576 0.22431 108 78 44
-0.46052 -0.0255333 0.21621 154 129 106
-0.46262 -0.0299927 0.218208 154 129 106
-0.446853 -0.0865422 0.230292 108 100 68
-0.460254 -0.0125925 0.214282 101 70 33
-0.456817 0.00618292 0.211337 98 62 28
-0.456817 0.00618292 0.211337 98 62 28
-0.454865 -0.0361163 0.223311 104 72 37
-0.684556 -1.00705 -0.489175 104 12 12
-0.787198 -0.949077 -0.363384 130 110 114
-0.707375 -0.928884 -0.468792 114 26 22
-0.630207 -1.0167 -0.35552 120 14 20
-0.765023 -0.851158 -0.409817 154 106 48
-0.909994 -0.663459 -0.486207 35 12 9
-0.903043 -0.614511 -0.450898 37 16 7
-0.735659 -0.715188 -0.5413 67 28 12
-0.76138 -0.554884 -0.526241 90 51 20
-0.806909 -0.461735 -0.51488 150 146 90
-0.651132 -0.581369 -0.460766 88 37 24
-0.66505 -0.631213 -0.354699 65 13 3
-0.599869 -0.56195 -0.517203 72 32 14
-0.599354 -0.500166 -0.396374 101 59 43
-0.705665 -0.413536 -0.365116 26 8 4
-0.423279 -0.606371 -0.432924 125 74 51
-0.457901 -0.669439 -0.257041 89 63 52
-0.455488 -0.69139 -0.199989 156 129 116
-0.490115 -0.649085 -0.155963 39 4 1
-0.339665 -0.682966 -0.253714 67 33 24
-0.360865 -0.648779 -0.120985 66 25 18
-0.359132 -0.569265 -0.122398 113 102 96
-0.55482 -0.202266 -0.0295009 168 144 120
-0.396321 -0.228295 -0.0972852 100 72 46
-0.382218 -0.253031 -0.0895288 160 120 94
-0.424896 -0.233883 -0.0553166 102 65 46
-0.444365 -0.232424 -0.0452893 156 125 95
-0.317496 -0.259607 -0.0970297 26 14 8
-0.600867 -0.23946 0.0641941 100 60 26
-0.306911 -0.178835 -0.120525 158 150 126
-0.555386 -0.254081 0.0490826 108 72 49
-0.411997 -0.186191 -0.0514902 124 36 23
-0.411997 -0.186191 -0.0514902 124 36 23
-0.594353 -0.20364 0.0851809 124 8 8
-0.166251 -0.386752 0.00343654 178 157 151
-0.555127 -0.249978 0.126688 170 144 137
-0.238233 -0.296606 0.00444859 126 82 62
-0.295924 -0.292431 0.0378736 185 160 144
-0.299568 -0.271105 0.0297881 122 94 81
-0.524288 -0.249756 0.129643 116 91 80
-0.491577 -0.23984 0.112807 134 86 62
-0.50944 -0.251267 0.136977 158 137 130
-0.294491 -0.251638 0.0477373 102 60 38
-0.566732 -0.248 0.165008 166 140 135
-0.616119 -0.0540508 0.116215 101 46 21
-0.56627 -0.236539 0.177373 119 98 94
-0.593379 -0.0650957 0.132211 160 109 84
-0.324925 -0.231406 0.0900133 52 12 4
-0.539988 -0.208814 0.170958 62 46 41
-0.555002 -0.228134 0.185915 82 60 52
-0.559179 -0.164605 0.164424 11 12 12
-0.519139 -0.22458 0.171913 69 55 47
-0.181066 -0.313875 0.0689564 142 110 100
-0.628866 -0.619471 0.375869 124 83 54
-0.0852752 -0.306532 0.0386391 150 116 104
-0.552227 -0.213673 0.199756 122 79 54
-0.127907 -0.229911 0.0537029 212 195 191
-0.479723 -0.154665 0.164908 176 153 147
-0.542125 -0.200449 0.228491 102 76 56
-0.435341 -0.154493 0.212423 122 90 69
-0.435341 -0.154493 0.212423 122 90 69
-0.465216 -0.156018 0.227967 159 137 132
-0.459348 0.031276 0.201737 154 148 96
-0.750933 -0.953823 -0.464081 26 15 29
-0.7154 -0.699827 -0.614035 166 138 110
-0.755706 -0.684197 -0.450404 94 46 24
-0.751902 -0.67482 -0.458622 96 53 28
-0.681316 -0.671952 -0.371457 135 94 80
-0.680364 -0.504202 -0.503493 62 22 7
-0.66194 -0.401667 -0.616294 115 74 46
-0.778479 -0.437322 -0.390562 64 18 2
-0.386451 -0.715207 -0.438755 164 140 130
-0.386451 -0.715207 -0.438755 164 140 130
-0.792155 -0.4033 -0.374395 90 58 41
-0.44837 -0.611775 -0.480113 195 144 120
-0.45268 -0.645786 -0.43024 226 174 135
-0.590908 -0.452692 -0.369283 29 8 1
-0.479695 -0.690691 -0.183491 128 104 96
-0.509319 -0.696282 -0.139359 154 126 114
-0.35125 -0.677178 -0.286395 143 106 98
-0.542165 -0.370171 -0.421849 157 146 123
-0.449695 -0.652915 -0.117151 90 86 71
-0.334691 -0.560189 -0.11247 106 86 77
-0.34002 -0.556326 -0.10752 146 128 122
-0.352408 -0.549156 -0.100673 104 88 76
-0.295837 -0.225223 -0.201386 150 138 118
-0.32418 -0.338208 -0.106911 94 64 32
-0.628476 -0.0952362 -0.0634329 145 138 90
-0.565671 -0.173441 -0.0449539 100 90 64
-0.285769 -0.264774 -0.14502 142 114 95
-0.397342 -0.233813 -0.100087 160 137 114
-0.551029 -0.211251 -0.022664 98 69 31
-0.434375 -0.252321 -0.0609055 170 138 123
-0.45222 -0.230499 -0.0623878 90 52 23
-0.417946 -0.128821 -0.117312 145 142 92
-0.36377 -0.241325 -0.0796606 154 126 108
-0.44851 -0.230201 -0.0404849 172 132 108
-0.291727 -0.215064 -0.11152 94 74 42
-0.362948 -0.211913 -0.0656667 102 80 64
-0.256523 -0.198873 -0.12419 68 41 14
-0.538429 -0.266997 0.0581933 100 58 26
-0.363946 -0.159668 -0.0840628 18 26 14
-0.363946 -0.159668 -0.0840628 18 26 14
-0.525654 -0.266663 0.0828348 138 94 72
-0.350781 -0.197486 -0.0181729 161 130 117
-0.230953 -0.2277 -0.052484 184 160 150
-0.411535 -0.204141 0.033163 82 82 66
-0.193548 -0.381915 0.0235654 194 143 107
-0.436715 -0.226246 0.0753667 109 28 17
-0.286599 -0.280661 0.0351634 42 28 20
-0.607492 -0.0701346 0.0964647 155 132 102
-0.534533 -0.244762 0.158883 174 148 142
-0.28161 -0.251084 0.0544123 132 86 66
-0.534944 -0.239463 0.16242 86 63 54
-0.630627 -0.0565628 0.133892 210 159 134
-0.54795 -0.235901 0.172984 94 71 64
-0.518924 -0.243359 0.163656 85 67 60
-0.586518 -0.0782598 0.126925 126 80 48
-0.541888 -0.23593 0.174619 81 62 55
-0.537972 -0.22891 0.171878 95 78 71
-0.552249 -0.217802 0.183132 198 174 166
-0.0987013 -0.317346 0.0481754 150 120 106
-0.30102 -0.0498901 0.055108 92 76 72
-0.321195 -0.199645 0.124172 126 70 44
-0.142437 -0.178328 0.05449 60 32 10
-0.542891 -0.213066 0.221025 152 108 85
-0.430646 -0.171777 0.199887 108 74 52
-0.435728 -0.161823 0.209924 176 152 140
-0.476351 -0.118296 0.238012 110 78 48
-0.482197 -0.124477 0.250366 106 66 36
-0.812794 -0.889683 -0.421455 66 10 0
-0.839304 -0.706354 -0.555679 170 144 128
-0.866536 -0.630447 -0.464315 147 88 73
-0.757737 -0.688191 -0.440627 90 47 22
-0.671227 -0.601732 -0.34912 106 58 44
-0.453088 -0.658634 -0.251731 158 134 121
-0.450954 -0.655692 -0.248293 158 134 122
-0.440626 -0.675043 -0.15092 60 45 40
-0.686819 -0.720798 0.127895 150 141 118
-0.330434 -0.2718 -0.127953 40 22 14
-0.589419 -0.169163 -0.0363995 99 92 70
-0.324484 -0.269274 -0.124921 24 14 10
-0.456942 -0.12906 -0.0501947 96 28 6
-0.296689 -0.275293 -0.0303699 162 124 107
-0.314037 -0.162912 -0.0724402 162 153 132
-0.421 -0.162208 0.00286878 80 78 51
-0.614638 -0.0642002 0.105417 158 150 100
-0.267498 -0.262156 0.0633948 118 94 76
-0.535283 -0.218386 0.175103 171 153 148
-0.281848 -0.188245 0.0953925 157 142 119
-0.353744 -0.176753 0.131158 140 102 64
-0.857945 -0.962916 -0.462708 163 141 126
-0.71894 -1.01464 -0.472026 126 20 16
-0.768318 -0.96733 -0.425818 22 18 32
-0.780594 -0.955153 -0.424555 126 120 126
-0.780594 -0.955153 -0.424555 126 120 126
-0.863088 -0.920567 -0.364364 158 143 145
-0.762579 -0.950202 -0.43558 23 20 36
-0.759164 -0.947819 -0.434538 128 124 132
-0.811272 -0.897508 -0.414894 86 13 10
-0.594389 -0.952339 -0.55909 132 13 13
-0.688099 -0.93443 -0.470429 130 22 22
-0.688099 -0.93443 -0.470429 130 22 22
-0.78534 -0.78938 -0.542397 158 143 123
-0.833278 -0.698804 -0.562566 34 12 8
-0.837846 -0.706697 -0.548416 34 12 8
-0.595244 -0.81886 -0.640347 100 64 35
-0.922945 -0.652586 -0.483253 118 76 53
-0.765899 -0.845283 -0.422966 161 118 60
-0.733579 -0.710461 -0.57857 72 32 16
-0.815886 -0.670633 -0.527416 106 55 40
-0.756417 -0.71833 -0.532866 58 22 17
-0.574133 -0.809067 -0.591365 126 78 56
-0.70396 -0.738608 -0.499816 196 155 133
-0.788568 -0.629493 -0.480331 160 116 100
-0.786464 -0.601058 -0.483314 93 54 24
-0.734452 -0.662151 -0.459136 94 55 29
-0.725815 -0.689933 -0.437066 120 68 49
-0.695388 -0.709688 -0.436169 100 56 36
-0.524489 -0.748521 -0.517366 140 92 73
-0.499638 -0.742713 -0.52111 101 54 39
-0.700181 -0.49509 -0.563179 100 70 41
-0.688917 -0.517092 -0.546267 137 91 66
-0.70297 -0.493957 -0.552797 162 152 130
-0.516485 -0.730154 -0.49305 76 34 23
-0.68328 -0.489347 -0.561072 120 74 52
-0.694097 -0.682533 -0.388499 178 122 103
-0.68124 -0.663271 -0.378169 66 24 12
-0.428022 -0.664492 -0.537511 165 138 130
-0.718313 -0.574266 -0.388602 144 100 74
-0.476237 -0.657875 -0.499597 198 150 119
-0.476237 -0.657875 -0.499597 198 150 119
-0.713389 -0.588539 -0.360391 106 70 40
-0.760195 -0.425942 -0.442476 51 27 5
-0.781446 -0.433439 -0.419258 31 12 5
-0.807149 -0.380377 -0.420727 156 152 106
-0.78033 -0.439292 -0.389776 64 13 2
-0.78033 -0.439292 -0.389776 64 13 2
-0.715391 -0.44776 -0.422017 80 35 10
-0.662069 -0.595274 -0.353833 154 102 90
-0.675026 -0.559906 -0.367093 104 63 36
-0.455254 -0.629118 -0.461226 114 62 35
-0.518914 -0.573259 -0.454071 174 126 107
-0.623402 -0.565359 -0.374254 120 72 50
-0.439915 -0.633715 -0.44751 186 133 106
-0.469958 -0.625383 -0.432464 175 119 99
-0.448872 -0.624086 -0.443062 108 58 32
-0.629752 -0.569378 -0.356554 108 66 42
-0.467613 -0.59855 -0.434839 182 132 110
-0.703783 -0.411248 -0.346403 32 12 7
-0.42328 -0.563973 -0.409995 154 115 99
-0.42328 -0.563973 -0.409995 154 115 99
-0.61297 -0.450505 -0.357658 174 122 101
-0.582342 -0.451835 -0.368064 72 46 29
-0.38905 -0.541755 -0.408482 102 66 38
-0.650503 -0.411624 -0.327927 142 95 74
-0.622369 -0.429572 -0.323927 157 110 90
-0.451265 -0.658749 -0.278348 92 73 60
-0.451265 -0.658749 -0.278348 92 73 60
-0.451265 -0.658749 -0.278348 92 73 60
-0.450412 -0.663659 -0.264565 88 66 60
-0.375591 -0.5078 -0.383798 102 69 38
-0.451451 -0.658352 -0.266392 154 134 121
-0.449819 -0.67201 -0.259642 90 66 60
-0.442119 -0.661263 -0.266418 96 72 66
-0.442119 -0.661263 -0.266418 96 72 66
-0.40494 -0.580664 -0.323506 160 140 126
-0.355532 -0.429345 -0.418117 98 74 35
-0.426301 -0.665367 -0.256514 148 123 110
-0.365623 -0.521828 -0.359468 166 144 131
-0.432146 -0.635711 -0.267823 154 132 116
-0.429475 -0.616923 -0.274677 158 134 118
-0.420705 -0.615108 -0.275819 114 30 24
-0.450992 -0.644285 -0.240021 136 25 18
-0.401747 -0.639602 -0.261029 144 26 24
-0.481555 -0.586428 -0.242734 139 26 22
-0.404519 -0.457681 -0.291241 166 151 134
-0.450334 -0.669091 -0.163172 144 24 22
-0.434544 -0.681265 -0.161999 44 33 30
-0.437279 -0.677003 -0.158527 50 38 32
-0.418261 -0.682119 -0.163398 127 109 103
-0.335585 -0.693485 -0.191591 156 128 126
-0.34181 -0.561169 -0.24085 144 20 20
-0.436073 -0.671067 -0.154057 58 44 39
-0.42389 -0.677888 -0.152791 24 11 6
-0.322297 -0.673033 -0.196516 66 38 38
-0.433337 -0.668277 -0.148907 69 58 56
-0.427118 -0.660064 -0.149771 138 125 124
-0.337601 -0.664418 -0.177382 134 96 96
-0.460023 -0.64919 -0.129441 44 13 8
-0.451473 -0.653269 -0.125303 45 31 18
-0.420759 -0.657468 -0.13438 146 23 21
-0.451134 -0.646954 -0.120842 86 81 65
-0.399965 -0.639312 -0.136475 138 118 107
-0.448439 -0.637186 -0.116303 42 12 8
-0.435852 -0.637375 -0.108801 60 38 26
-0.399088 -0.642162 -0.118248 60 44 38
-0.394856 -0.643148 -0.118569 132 116 110
-0.399084 -0.637096 -0.115071 68 52 46
-0.389746 -0.643119 -0.113926 32 17 12
-0.39769 -0.639755 -0.111031 144 130 124
-0.330473 -0.62399 -0.140546 134 32 33
-0.402847 -0.630549 -0.104918 129 113 112
-0.378913 -0.637443 -0.111544 170 158 156
-0.380992 -0.613232 -0.113343 158 136 135
-0.331694 -0.591919 -0.108071 152 134 122
-0.333426 -0.554132 -0.116973 78 54 46
-0.335972 -0.545573 -0.111847 202 184 178
-0.240414 -0.287059 -0.209058 92 80 58
-0.294561 -0.274567 -0.188699 148 136 114
-0.264049 -0.21496 -0.213406 108 78 48
-0.288525 -0.290447 -0.168261 104 70 49
-0.289574 0.164534 -0.291648 164 162 114
-0.293521 -0.257716 -0.163944 134 83 54
-0.191043 -0.365712 -0.156905 71 34 16
-0.336984 -0.27068 -0.126995 150 120 103
-0.320438 -0.266747 -0.13248 20 14 8
-0.196155 -0.364029 -0.142944 144 120 105
-0.218411 -0.371029 -0.133175 28 16 7
-0.345618 -0.257742 -0.121636 160 128 110
-0.234473 -0.37188 -0.126449 99 104 89
-0.348847 -0.271198 -0.114337 150 124 108
-0.209133 -0.361961 -0.132117 134 122 112
-0.566423 -0.10963 -0.0791172 164 156 109
-0.566423 -0.10963 -0.0791172 164 156 109
-0.559715 -0.110007 -0.0811767 124 72 40
-0.307891 -0.25191 -0.124179 76 40 14
-0.63378 -0.16416 -0.0396485 126 68 28
-0.567065 -0.109012 -0.0740711 130 74 47
-0.546226 -0.112181 -0.0772974 164 156 117
-0.401802 -0.317208 -0.0709751 88 60 28
-0.305059 -0.26507 -0.114156 136 106 88
-0.436276 -0.254271 -0.0722511 147 116 98
-0.290324 -0.266418 -0.113651 172 136 118
-0.440085 -0.249176 -0.0683093 154 122 104
-0.43279 -0.25663 -0.0694773 158 128 110
-0.322763 -0.262009 -0.100514 34 18 9
-0.543215 -0.178629 -0.0527784 162 158 116
-0.555592 -0.180907 -0.0478918 87 66 36
-0.255867 -0.35936 -0.0962826 154 126 118
-0.592738 -0.174154 -0.0349549 86 74 54
-0.56814 -0.163486 -0.0448842 76 74 52
-0.453235 -0.231774 -0.0601621 97 56 34
-0.558526 -0.1966 -0.0362575 98 69 36
-0.420915 -0.143149 -0.0897975 163 158 114
-0.291196 -0.26354 -0.098931 80 44 25
-0.438116 -0.190736 -0.0691488 91 19 11
-0.366158 -0.24098 -0.0762705 144 116 103
-0.366158 -0.24098 -0.0762705 144 116 103
-0.415541 -0.132983 -0.0858163 86 38 14
-0.428838 -0.23867 -0.0569048 152 124 112
-0.279787 -0.287417 -0.0886917 132 112 92
-0.440284 -0.137953 -0.0752227 121 65 33
-0.440284 -0.137953 -0.0752227 121 65 33
-0.453993 -0.143776 -0.0683763 164 160 110
-0.439582 -0.224901 -0.051074 161 127 109
-0.439582 -0.224901 -0.051074 161 127 109
-0.378553 -0.23468 -0.0667602 44 11 0
-0.447757 -0.220016 -0.0483417 98 46 20
-0.445349 -0.223838 -0.0460206 167 128 108
-0.292161 -0.156991 -0.103551 46 32 10
-0.465265 -0.217364 -0.0382097 96 43 22
-0.405663 -0.219141 -0.0502032 140 106 88
-0.455912 -0.16072 -0.0470399 108 46 24
-0.605304 -0.40736 0.0503809 107 48 26
-0.401585 -0.220675 -0.0491206 36 31 16
-0.452698 -0.128581 -0.0463925 170 150 110
-0.429988 -0.153176 -0.0467532 86 50 24
-0.571721 -0.221116 0.00913337 69 58 46
-0.382827 -0.153362 -0.0581826 72 41 16
-0.22249 -0.103116 -0.113685 114 104 75
-0.422036 -0.160579 -0.0440506 162 154 113
-0.623321 -0.207908 0.0267501 102 62 32
-0.57311 -0.230221 0.0224085 142 125 115
-0.556677 -0.232717 0.0242145 142 116 106
-0.552633 0.0354253 -0.026206 102 85 48
-0.232445 -0.357955 -0.0353064 150 114 102
-0.548575 -0.243169 0.0301357 136 108 92
-0.242095 -0.355161 -0.0291042 113 72 54
-0.615572 -0.230988 0.0476312 146 106 84
-0.317659 -0.300756 -0.0179159 124 99 91
-0.314379 -0.197928 -0.038093 69 52 36
-0.436108 -0.208814 0.0023212 152 146 97
-0.566751 -0.237124 0.0414174 94 66 56
-0.337581 -0.0250997 -0.0536179 54 43 8
-0.168466 -0.373821 -0.0315999 146 119 114
-0.251519 -0.347494 -0.0137179 147 104 86
-0.295866 -0.295004 -0.00969939 158 126 110
-0.396479 -0.166532 -0.00698385 54 46 28
-0.30197 -0.289608 -0.00815869 32 7 1
-0.407721 -0.174551 0.00512732 98 86 66
-0.193751 -0.366518 -0.0140585 134 85 70
-0.59471 -0.242229 0.0663448 91 46 22
-0.59471 -0.242229 0.0663448 91 46 22
-0.557099 -0.246688 0.0586126 114 12 10
-0.591185 -0.243104 0.067671 138 93 71
-0.591185 -0.243104 0.067671 138 93 71
-0.545959 -0.244874 0.0600851 130 92 82
-0.372474 -0.287814 0.0258299 183 118 92
-0.419466 -0.173305 0.0217797 119 94 81
-0.2298 -0.347441 0.00647 114 70 51
-0.550411 -0.248696 0.0701848 94 14 16
-0.546923 -0.252265 0.0704326 34 5 5
-0.337926 -0.277319 0.0275074 154 113 93
-0.403334 -0.188614 0.0291497 160 132 120
-0.240483 -0.335146 0.0150624 73 30 13
-0.54547 -0.251044 0.0789064 134 108 100
-0.54547 -0.251044 0.0789064 134 108 100
-0.221276 -0.349266 0.0241182 166 144 135
-0.340532 -0.272495 0.0409898 129 82 60
-0.286644 -0.281974 0.0304574 178 150 137
-0.523834 -0.258258 0.08299 156 130 122
-0.513903 -0.258617 0.0812391 84 46 26
-0.578753 -0.244832 0.0982904 160 133 125
-0.578753 -0.244832 0.0982904 160 133 125
-0.253775 -0.273511 0.0276099 126 107 95
-0.239841 -0.336912 0.0343352 155 114 96
-0.332373 -0.261895 0.0481477 144 102 88
-0.412736 -0.20935 0.0597911 110 12 8
-0.561213 -0.0146835 0.068451 111 70 42
-0.230831 -0.274933 0.0308746 191 169 158
-0.230831 -0.274933 0.0308746 191 169 158
-0.584991 -0.241323 0.107638 102 58 34
-0.411895 -0.234169 0.0678537 161 73 52
-0.360843 -0.230642 0.0613701 12 8 10
-0.318382 -0.237079 0.0536144 132 92 80
-0.395454 -0.232475 0.0722556 156 64 39
-0.60428 -0.0466205 0.0952822 166 150 109
-0.606256 -0.0699541 0.0997747 157 130 98
-0.605896 -0.0900549 0.10429 157 108 86
-0.307109 -0.279372 0.0624922 135 88 72
-0.417012 -0.193706 0.0754961 110 24 20
-0.417549 -0.213641 0.0799998 114 12 8
-0.329255 -0.253501 0.0660966 23 8 4
-0.169103 -0.341661 0.0445162 130 60 56
-0.610945 -0.0695452 0.108195 102 62 28
-0.237701 -0.214716 0.0461423 27 14 12
-0.515441 -0.249925 0.113941 160 138 128
-0.444806 -0.23028 0.0971999 92 39 28
-0.414095 -0.200732 0.0869144 154 91 72
-0.617231 0.0232405 0.104055 162 153 106
-0.189379 -0.222119 0.0432427 180 159 148
-0.242529 -0.211868 0.0531811 124 95 79
-0.242529 -0.211868 0.0531811 124 95 79
-0.396408 -0.298442 0.100128 120 90 84
-0.34081 -0.229822 0.0788652 120 90 84
-0.360459 -0.21971 0.0859255 140 91 73
-0.349474 -0.225946 0.0846879 46 20 16
-0.607986 -0.0665553 0.122697 210 158 136
-0.324214 -0.23565 0.086732 48 20 14
-0.324214 -0.23565 0.086732 48 20 14
-0.598367 -0.0591002 0.123862 126 75 43
-0.165374 -0.298946 0.0619125 126 94 78
-0.786879 -0.737865 0.248297 107 86 82
-0.314181 -0.229465 0.0905971 158 108 88
-0.142977 -0.320842 0.0661019 180 152 122
-0.275088 -0.214602 0.0820028 178 154 138
-0.5921 -0.0916725 0.134669 130 82 60
-0.609442 -0.0573638 0.135689 101 52 24
-0.61081 -0.0242531 0.134485 219 174 150
-0.307491 -0.208367 0.0940906 128 86 64
-0.163888 -0.287624 0.0746241 187 154 142
-0.208155 -0.209464 0.077024 174 148 136
-0.160212 -0.277917 0.0757563 144 98 84
-0.582326 -0.0698703 0.139196 15 10 10
-0.513127 -0.227023 0.143596 154 134 128
-0.511578 -0.231302 0.143792 105 85 80
-0.574434 0.0261436 0.130297 122 84 56
-0.286327 -0.201842 0.0972285 74 48 22
-0.139773 -0.148032 0.0651035 136 93 72
-0.509014 -0.238657 0.149022 102 84 77
-0.513891 -0.233029 0.149546 175 156 151
-0.130294 -0.267871 0.0791496 40 18 10
-0.117085 -0.230849 0.0787447 138 92 70
-0.548669 -0.202511 0.1589 120 84 68
-0.799537 -0.618417 -0.500519 97 51 26
-0.308491 -0.250137 0.0718472 178 116 96
-0.856239 -0.981028 -0.445689 119 20 13
-0.769072 -0.80027 -0.467601 167 136 116
-0.534901 -0.767001 -0.522174 64 22 15
-0.355317 -0.696069 -0.221041 65 28 20
-0.466844 -0.149088 -0.0486854 168 148 102
-0.915343 -0.892708 -0.372619 160 147 126
-0.784397 -0.947946 -0.413355 29 19 26
-0.66991 -0.613261 -0.34744 178 126 110
-0.719669 -0.945415 -0.433232 48 20 27
-0.749568 -0.672614 -0.466885 95 51 25
-0.532816 -0.243787 0.0218738 162 146 104
-0.591249 -0.427883 -0.341661 152 138 114
-0.702825 -0.960968 -0.445969 149 90 48
-0.873366 -0.613895 -0.457886 182 125 106
-0.876835 -0.589256 -0.466119 47 8 0
-0.538151 -0.768526 -0.51423 66 24 18
-0.489319 -0.6819 -0.501998 124 93 85
-0.451307 -0.652495 -0.444539 131 79 47
-0.867624 -0.69244 -0.603088 161 147 127
-0.702973 -0.348622 -0.347388 66 56 24
-0.579988 -0.438075 -0.365916 94 56 33
-0.245604 -0.297193 0.0675358 123 90 73
-0.303827 -0.285417 -0.0113849 61 18 4
-0.296038 -0.286711 -0.00367767 46 22 8
-0.818655 -0.654398 -0.507586 111 52 26
-0.862906 -0.639614 -0.47492 198 136 116
-0.683953 -0.479771 -0.571664 86 48 22
-0.681608 -0.476762 -0.550087 62 25 4
-0.340086 -0.245264 0.0671918 86 62 68
-0.737959 -0.741535 -0.56428 158 134 112
-0.550422 -0.714073 -0.485404 92 46 23
-0.665672 -0.567192 -0.364572 74 26 8
-0.669473 -0.411522 -0.364191 44 14 10
-0.58509 -0.442405 -0.354663 108 66 44
-0.23559 -0.359489 -0.136452 86 36 28
-0.437203 -0.241266 -0.0766871 160 131 107
-0.430315 -0.232805 -0.0540704 142 114 96
-0.205883 -0.365109 0.0205776 194 172 170
-0.610518 -0.095543 0.1114 122 54 32
-0.355992 -0.246404 0.0694031 72 66 72
-0.310891 -0.25379 0.0735299 174 115 90
-0.210307 -0.243282 0.0522292 194 172 161
-0.630425 -0.402772 -0.329327 56 30 7
-0.437518 -0.659426 -0.136012 84 18 10
-0.269112 -0.288692 0.0247771 134 106 92
-0.348187 -0.551312 -0.120626 84 67 53
-0.175571 -0.385409 -0.0116744 175 146 139
-0.14522 -0.322548 0.067679 196 168 146
-0.804928 -0.912016 -0.416214 108 12 12
-0.681062 -0.367247 -0.351598 156 146 108
-0.403617 -0.644509 -0.119113 101 83 74
-0.348276 -0.559197 -0.122623 140 125 116
-0.683173 -1.04487 -0.544479 157 122 107
-0.712973 -1.02791 -0.467811 169 113 44
-0.69787 -1.03094 -0.49042 162 107 36
-0.678625 -1.03653 -0.54215 148 16 18
-0.670014 -1.03521 -0.591362 148 16 18
-0.654755 -1.05028 -0.524654 136 16 14
-0.78984 -0.956095 -0.400282 20 12 20
-0.672356 -1.01394 -0.532159 110 9 9
-0.672356 -1.01394 -0.532159 110 9 9
-0.765616 -0.959784 -0.417744 20 16 28
-0.770653 -0.938553 -0.490578 32 20 30
-0.74947 -0.949261 -0.501714 22 17 30
-0.831337 -0.887563 -0.398968 162 148 130
-0.708931 -0.958648 -0.445436 55 2 2
-0.858463 -0.81772 -0.441579 162 147 126
-0.759829 -0.827736 -0.420007 132 14 16
-0.879905 -0.699932 -0.483056 78 45 26
-0.627709 -0.797479 -0.680721 100 64 32
-0.709768 -0.688143 -0.424931 174 112 90
-0.830842 -0.55073 -0.478084 149 143 91
-0.55478 -0.750604 -0.500909 196 142 108
-0.684498 -0.66739 -0.368649 56 14 4
-0.600635 -0.567634 -0.562457 61 26 15
-0.672175 -0.597453 -0.346553 146 99 78
-0.476024 -0.630637 -0.437563 134 80 56
-0.729038 -0.34768 -0.406191 76 41 24
-0.461457 -0.680793 -0.243252 84 56 48
-0.453977 -0.674353 -0.229952 92 66 56
-0.496929 -0.689775 -0.15531 150 126 118
-0.655116 -0.315329 -0.407388 145 142 89
-0.409829 -0.710584 -0.190225 149 28 28
-0.437225 -0.506463 -0.392342 174 131 114
-0.444011 -0.683992 -0.149216 102 87 80
-0.417009 -0.651797 -0.108627 144 125 118
-0.436322 -0.637003 -0.101829 94 82 66
-0.420012 -0.654711 -0.0845983 82 64 57
-0.397249 -0.635417 -0.101858 98 77 72
-0.431842 -0.541081 -0.141507 138 31 22
-0.368889 -0.58955 -0.123801 77 26 18
-0.335719 -0.620804 -0.116448 149 128 121
-0.363197 -0.580041 -0.110867 88 74 64
-0.359227 -0.561468 -0.102787 83 66 56
-0.611626 -0.184801 -0.0170781 150 122 92
-0.61934 -0.145079 -0.0318871 102 66 30
-0.618005 -0.155847 -0.0165226 150 132 110
-0.446799 -0.251642 -0.054937 170 138 118
-0.316148 -0.261208 -0.108275 128 97 78
-0.566915 -0.228142 0.0161664 86 68 59
-0.354421 -0.227309 -0.092816 152 122 102
-0.43107 -0.225706 -0.0480651 164 127 109
-0.430241 -0.220739 -0.0470347 110 59 32
-0.597828 -0.0970364 -0.0255933 118 96 80
-0.402676 -0.226125 -0.0522875 160 122 104
-0.475869 -0.165964 -0.0425196 144 140 90
-0.397893 -0.226514 -0.0500041 110 64 39
-0.330178 -0.185943 -0.105195 33 12 2
-0.270809 -0.134906 -0.163645 89 70 37
-0.596492 -0.241516 0.0835243 128 80 58
-0.597632 -0.240171 0.0904491 102 7 4
-0.543975 -0.261745 0.0741302 155 128 115
-0.168344 -0.320791 -0.0842297 246 226 220
-0.251652 -0.346802 -0.0247778 188 140 120
-0.270703 -0.340956 -0.0161582 94 52 26
-0.266957 -0.336155 -0.0212063 94 52 26
-0.391529 -0.140864 -0.0615816 144 142 88
-0.223298 -0.390039 -0.00855721 195 164 158
-0.310534 -0.283255 -0.0203678 180 111 82
-0.354427 -0.131111 -0.0822448 90 51 16
-0.362901 -0.118498 -0.0820058 94 68 24
-0.298288 -0.298701 -0.00649479 164 134 118
-0.283418 -0.271055 -0.0203135 42 19 8
-0.173096 -0.390901 -0.00755505 174 150 145
-0.176843 -0.394214 -0.00349855 174 150 145
-0.198041 -0.38106 0.00172567 138 24 21
-0.229822 -0.335797 0.0143512 112 64 38
-0.424127 -0.214178 0.0493786 156 127 112
-0.390778 -0.24135 0.0547947 23 16 14
-0.390778 -0.24135 0.0547947 23 16 14
-0.227158 -0.356111 0.0334141 178 152 146
-0.428478 -0.226125 0.0660457 126 12 8
-0.37819 -0.248129 0.057092 18 10 10
-0.384829 -0.250616 0.0639856 118 108 108
-0.238322 -0.339068 0.0484339 96 50 26
-0.230294 -0.34309 0.0499301 190 147 127
-0.257459 -0.262102 0.0321628 77 36 13
-0.534282 -0.235944 0.151251 95 70 60
-0.52693 -0.242427 0.151561 62 40 29
-0.52693 -0.242427 0.151561 62 40 29
-0.532083 -0.239702 0.155121 198 173 162
-0.619822 -0.063641 0.111059 153 145 103
-0.613922 -0.0757798 0.118038 106 59 26
-0.524708 -0.244253 0.164108 178 158 152
-0.551783 -0.233524 0.172902 68 48 41
-0.392171 -0.211301 0.0916295 90 33 14
-0.495723 -0.234851 0.151887 156 136 128
-0.525492 -0.2525 0.178011 152 135 130
-0.525492 -0.2525 0.178011 152 135 130
-0.602852 -0.071811 0.128036 117 64 34
-0.522603 -0.233743 0.168869 67 53 46
-0.522511 -0.224401 0.168969 158 140 133
-0.537451 -0.228853 0.180379 177 160 153
-0.497428 -0.220377 0.158804 76 62 57
-0.516768 -0.22012 0.168509 64 50 42
-0.514812 -0.231273 0.176161 75 59 54
-0.147082 -0.353316 0.0670044 128 99 86
-0.326931 -0.226764 0.0916327 159 94 68
-0.370378 -0.0655869 0.0418637 59 23 5
-0.601546 -0.0420226 0.137415 98 64 26
-0.584611 -0.0680601 0.143585 18 8 3
-0.506802 -0.229009 0.18552 95 76 70
-0.31527 -0.205018 0.0945335 177 146 127
-0.340653 -0.208308 0.110637 144 76 40
-0.357398 -0.176277 0.106373 24 4 2
-0.357398 -0.176277 0.106373 24 4 2
-0.236993 -0.225961 0.0786168 184 155 136
-0.299284 -0.217183 0.101765 54 18 2
-0.352529 -0.171029 0.107907 154 96 73
-0.355635 -0.165303 0.11132 75 50 42
-0.218764 -0.14989 0.0499935 32 27 22
-0.35365 -0.0561019 0.0676397 19 7 2
-0.362514 -0.0638253 0.0750992 12 10 8
-0.131141 -0.302663 0.0809213 167 138 116
-0.3535 -0.16164 0.115285 163 126 104
-0.485635 -0.21218 0.201623 128 23 19
-0.338896 -0.191575 0.135469 48 34 22
-0.146395 -0.169928 0.0797724 103 63 29
-0.498081 -0.18788 0.232107 168 123 102
-0.446643 -0.175822 0.214787 152 134 124
-0.438762 -0.168991 0.21385 191 166 153
-0.486508 -0.163546 0.237244 106 62 35
-0.502256 -0.0718293 0.215679 138 112 91
-0.425999 -0.120335 0.218832 56 28 18
-0.471786 -0.0873654 0.22706 104 64 32
-0.462872 0.0288145 0.190239 94 62 24
-0.462872 0.0288145 0.190239 94 62 24
-0.464237 0.0409736 0.187597 96 62 24
-0.472608 -0.070117 0.231965 102 66 30
-0.458342 0.0228996 0.193652 158 138 113
-0.467069 -0.0936128 0.241945 156 140 116
-0.447844 -0.0649444 0.230246 111 82 58
-0.856479 -0.980925 -0.446698 120 22 13
-0.881985 -0.964229 -0.400963 143 43 29
-0.929444 -0.920928 -0.369545 161 144 124
-0.820462 -1.00125 -0.405129 102 3 5
-0.743711 -1.01475 -0.465617 60 36 45
-0.879843 -0.893552 -0.379375 116 14 12
-0.633208 -0.968851 -0.465576 114 20 18
-0.714558 -0.877573 -0.503062 160 140 124
-0.779285 -0.730766 -0.489398 95 44 31
-0.865683 -0.613783 -0.451535 112 56 35
-0.660236 -0.631085 -0.368521 178 121 103
-0.672452 -0.483325 -0.507353 80 31 7
-0.536021 -0.578633 -0.435735 166 113 93
-0.558887 -0.410918 -0.428864 170 150 126
-0.486067 -0.590482 -0.289189 111 64 46
-0.444175 -0.62732 -0.268953 153 119 108
-0.337193 -0.682553 -0.276347 68 30 24
-0.618554 -0.725569 0.107858 73 40 16
-0.613804 -0.604598 -0.0171543 144 136 114
-0.613804 -0.604598 -0.0171543 144 136 114
-0.376878 -0.43432 -0.404566 90 66 30
-0.375524 -0.56809 -0.118272 150 131 116
-0.610629 -0.152646 -0.0446042 94 68 26
-0.358906 -0.400448 -0.0257 92 57 29
-0.624397 -0.114817 -0.0522058 104 66 28
-0.320423 -0.258872 -0.124201 113 89 56
-0.410946 -0.242372 -0.0800546 154 124 108
-0.585246 -0.227585 0.0181207 156 132 118
-0.548132 -0.24864 0.0456593 179 145 130
-0.498908 -0.202074 0.00618126 156 140 104
-0.169752 -0.384888 -0.0596092 212 188 182
-0.175248 -0.324261 -0.0813819 251 236 230
-0.442258 -0.117212 -0.050197 158 146 107
-0.303036 -0.126111 -0.10934 94 78 49
-0.363165 -0.1665 -0.0508334 128 122 78
-0.367965 -0.281438 0.0206229 189 120 81
-0.360229 -0.274559 0.0131854 206 143 107
-0.510005 -0.262488 0.0910835 164 148 105
-0.389595 -0.165122 -0.0163247 148 140 100
-0.402382 -0.1802 0.00515535 78 84 65
-0.352537 -0.26973 0.0284184 132 76 51
-0.58148 -0.227761 0.127302 192 152 130
-0.369627 -0.344883 0.0946095 184 157 138
-0.521505 -0.220659 0.134674 102 75 67
-0.56437 -0.233077 0.166634 120 84 70
-0.551488 -0.216781 0.164956 86 65 57
-0.507192 -0.229253 0.154263 89 71 63
-0.538735 -0.220612 0.16583 126 106 100
-0.402965 -0.180921 0.0848698 169 142 132
-0.363168 -0.0724499 0.034061 66 26 11
-0.376164 -0.0822299 0.0461375 162 144 112
-0.552369 -0.202999 0.181472 138 102 84
-0.520845 -0.227869 0.18172 192 173 170
-0.3405 -0.184919 0.0843135 144 77 44
-0.171889 -0.313045 0.0726983 140 105 90
-0.502427 -0.219836 0.179413 111 92 86
-0.542462 -0.209846 0.193474 118 94 86
-0.367814 -0.107538 0.0806592 78 26 13
-0.440953 -0.229459 0.166151 78 26 13
-0.244344 -0.163011 0.0612795 151 130 112
-0.244344 -0.163011 0.0612795 151 130 112
-0.182659 -0.0921309 0.0107335 30 20 12
-0.182659 -0.0921309 0.0107335 30 20 12
-0.207461 -0.157255 0.0499445 130 114 96
-0.222408 -0.131368 0.0453202 150 138 117
-0.347161 -0.152864 0.115892 112 86 60
-0.354779 -0.17944 0.131758 134 96 60
-0.135134 -0.0299054 -0.025099 152 140 116
-0.26925 -0.021745 0.0302567 148 136 103
-0.514568 0.0148288 0.123642 116 104 65
-0.602176 -0.204151 0.251252 116 104 65
-0.492638 0.0525244 0.112368 106 87 55
-0.492638 0.0525244 0.112368 106 87 55
-0.481011 0.0673122 0.119899 138 108 82
-0.176943 -0.159942 0.0953278 153 136 115
-0.503966 -0.211598 0.256734 124 88 70
-0.491308 -0.188811 0.249826 162 136 122
-0.463133 -0.154052 0.245521 113 20 15
-0.463133 -0.154052 0.245521 113 20 15
-0.465972 -0.0169139 0.203766 157 134 111
-0.465972 -0.0169139 0.203766 157 134 111
-0.455293 -0.0566879 0.236906 98 74 35
-0.671844 -1.04894 -0.519032 146 27 18
-0.792835 -0.386632 -0.351188 92 64 46
-0.524259 -0.722983 -0.132433 114 83 69
-0.604629 -0.419155 -0.314271 154 145 115
-0.256092 -0.283825 0.00323523 160 127 107
-0.534496 -0.249785 0.155362 77 54 44
-0.405716 -0.0815512 0.0133566 116 66 40
-0.119216 -0.323647 0.0522823 134 106 89
-0.88898 -0.878323 -0.372488 164 148 126
-0.869056 -0.697415 -0.586675 161 150 126
-0.899259 -0.6204 -0.467427 50 22 12
-0.877553 -0.590541 -0.46189 40 10 1
-0.877553 -0.590541 -0.46189 40 10 1
-0.703172 -0.512396 -0.536227 94 58 24
-0.425155 -0.607869 -0.428612 126 76 52
-0.605487 -0.417758 -0.328643 94 66 30
-0.432815 -0.672285 -0.140463 76 62 62
-0.423912 -0.673518 -0.140207 132 114 109
-0.349999 -0.542683 -0.117313 92 72 58
-0.422056 -0.2522 -0.0652953 56 27 7
-0.629895 -0.0685159 -0.0524758 95 72 32
-0.598776 -0.249134 0.0701998 156 122 105
-0.597823 -0.247107 0.0689557 156 122 105
-0.31699 -0.166653 -0.071221 158 148 124
-0.423397 -0.247804 0.0721688 140 70 46
-0.489806 -0.236501 0.110055 131 83 57
-0.561174 -0.226689 0.161603 122 90 77
-0.263639 -0.26468 0.0304461 140 111 100
-0.263639 -0.26468 0.0304461 140 111 100
-0.228868 -0.303786 0.0370729 158 128 117
-0.515412 -0.226549 0.17739 86 70 66
-0.592239 -0.0429967 0.115742 108 61 32
-0.37877 -0.0591352 0.0382537 122 82 62
-0.114037 -0.323555 0.0422858 129 100 85
-0.140873 -0.317409 0.0632652 193 166 145
-0.15703 -0.308802 0.0727546 194 164 150
-0.337645 -0.197567 0.121711 140 100 75
-0.337645 -0.197567 0.121711 140 100 75
-0.664089 -0.483226 0.417741 94 70 50
-0.296625 -0.17936 0.108823 130 70 40
-0.381929 -0.0912395 0.110987 137 97 78
-0.202078 -0.12551 0.0447055 86 68 32
-0.334074 -0.04243 0.0800552 118 76 37
-0.52538 -0.182975 0.236699 8 8 6
-0.29344 -0.16785 0.125292 136 88 63
-0.481167 -0.184225 0.219255 154 134 126
-0.463867 -0.183109 0.218673 155 138 118
-0.497782 -0.147972 0.219692 114 73 48
-0.437991 -0.187564 0.234457 156 143 104
-0.425654 -0.120047 0.218657 46 22 15
-0.466319 0.00325732 0.204477 159 137 110
-0.458711 0.0322761 0.201284 155 148 95
-0.445058 0.0126814 0.216665 146 144 92
-0.734767 -0.979566 -0.438451 24 14 29
-0.478958 -0.598116 -0.149344 140 84 65
-0.25231 -0.216093 0.0569453 114 88 72
-0.25231 -0.216093 0.0569453 114 88 72
-0.189614 -0.303498 0.0752125 129 94 82
-0.180122 -0.297334 0.0838856 150 90 66
-0.338023 -0.183796 0.135539 174 150 130
-0.898988 -0.937933 -0.405037 182 66 66
-0.679916 -1.03776 -0.494941 138 12 12
-0.799304 -0.869065 -0.438138 134 93 34
-0.671973 -0.942789 -0.48643 158 136 119
-0.68285 -0.453103 -0.551596 97 62 27
-0.712809 -0.430592 -0.428989 80 30 10
-0.355398 -0.0576733 0.0875666 34 16 4
-0.221072 -0.111953 0.064091 128 82 58
