ply
format ascii 1.0
element vertex 1052
property float x
property float y
property float z
property uchar red
property uchar green
property uchar blue
end_header
-1.48049 -1.50482 -0.888299 0 255 0
-1.36666 -1.65832 -0.820649 0 255 0
-1.73215 -1.19152 -0.83612 0 255 0
-1.79928 -1.25036 -0.771931 0 255 0
-0.754892 -1.07008 0.340557 0 255 0
-1.34174 -1.73795 -0.826885 0 255 0
-1.3048 -1.79074 -0.804068 0 255 0
-1.39261 -1.77066 -0.832628 0 255 0
-1.49104 -1.52746 -0.812268 0 255 0
-1.24064 -0.31225 -0.702852 148 98 38
-1.27998 -0.413282 -0.610756 164 144 125
-1.18621 -0.285743 -0.714487 148 118 102
-1.31575 -0.293762 -0.330267 130 122 84
-1.35482 -0.347773 -0.236643 64 34 14
-1.21318 -0.333283 -0.260929 46 16 8
-1.21608 -0.369429 -0.252779 152 144 94
-1.10327 -0.315229 -0.275834 100 66 30
-0.905197 -0.292737 -0.48459 105 54 24
-0.930982 -0.485991 -0.12135 149 138 95
-0.823914 -0.549399 -0.477372 155 128 120
-0.718067 -0.403374 -0.323029 138 106 74
-0.691993 -0.360009 -0.282509 96 72 35
-0.803209 -0.656438 -0.431892 122 72 56
-0.48225 -0.627811 -0.276047 78 56 38
-0.578386 -0.759808 0.00123906 122 85 43
-0.577454 -0.758946 0.00227173 122 85 43
-0.476105 -0.704081 -0.108091 164 150 126
-0.577235 -0.768965 -0.0329953 96 48 16
-0.406065 -0.728713 -0.317044 201 178 172
-0.408908 -0.759112 -0.364098 172 145 140
-0.430714 -0.789252 -0.240136 104 60 32
-0.451004 -0.813028 -0.277336 164 133 120
-0.466461 -0.827143 -0.307683 102 54 30
-0.503455 -0.846769 -0.191137 176 138 114
-0.509574 -0.865625 -0.187914 182 136 116
-0.506643 -0.876276 -0.157485 87 75 76
-0.501712 -0.875692 -0.164632 92 65 62
-0.578554 -0.916891 -0.0365103 134 88 67
-0.558162 -0.915354 -0.114049 184 94 69
-0.406812 -0.845917 -0.303058 174 140 126
-0.499567 -0.890339 -0.174757 46 16 10
-0.549371 -0.919684 -0.123626 126 28 4
-0.440566 -0.856776 -0.162861 164 129 104
-0.545814 -0.922334 -0.0782131 160 134 122
-0.482543 -0.89505 -0.186427 100 66 60
-0.527618 -0.937268 -0.0944651 226 173 146
-0.527618 -0.937268 -0.0944651 226 173 146
-0.350458 -0.867278 -0.304819 144 110 94
-0.445133 -0.907984 0.0216738 60 40 30
-0.238415 -0.824503 -0.310267 120 90 77
-0.457776 -0.944725 -0.123101 175 140 118
-0.473068 -0.954284 -0.117832 144 80 50
-0.283449 -0.867944 -0.287902 172 147 128
-0.431316 -0.955359 -0.12335 50 18 0
-0.251607 -0.879501 -0.165324 154 142 120
-0.457253 -0.980276 -0.0839584 110 88 48
-1.03396 -0.433237 -0.342206 82 30 14
-1.03011 -0.428177 -0.339686 82 30 14
-0.932713 -0.455228 -0.144799 148 100 85
-0.733186 -0.485096 -0.542477 140 102 91
-0.425104 -0.852447 -0.227736 168 142 124
-0.41459 -0.845752 -0.244911 204 182 172
-0.50838 -0.926866 -0.0110703 50 15 4
-0.412408 -0.817839 -0.367951 122 42 30
-0.430565 -0.880964 -0.180632 140 106 88
-1.31295 -0.391534 -0.751455 170 122 73
-1.24248 -0.262589 -0.743078 146 117 104
-1.29241 -0.261478 -0.361857 97 55 28
-1.19899 -0.296222 -0.410425 66 22 12
-1.03347 -0.383095 -0.174771 100 68 30
-0.849714 -0.49308 -0.512567 160 132 121
-0.812953 -0.62618 -0.537868 190 170 161
-0.483473 -0.702464 -0.108312 72 44 18
-0.728996 -0.942299 -0.056842 154 122 108
-0.382415 -0.796965 -0.36393 122 73 66
-0.664384 -1.0043 -0.0839879 127 100 89
-0.448142 -0.913652 -0.162808 73 28 16
-0.692521 -1.0421 -0.054827 239 224 212
-0.33841 -0.877818 -0.297421 144 70 46
-0.456854 -0.959665 -0.116925 178 150 129
-0.456854 -0.959665 -0.116925 178 150 129
-0.0625425 -0.776663 0.582673 142 115 80
-1.25683 -0.308037 -0.709567 122 62 16
-0.911979 -0.495885 -0.153751 66 36 12
-0.600815 -0.376554 -0.444796 142 124 117
-0.473356 -0.659903 -0.313209 101 26 28
-0.508064 -0.682283 -0.282087 139 64 40
-0.464883 -0.660259 -0.180424 110 66 42
-0.512282 -0.71509 -0.173548 110 90 74
-0.403857 -0.766839 -0.365092 30 13 12
-0.393983 -0.776433 -0.361575 116 64 58
-0.568851 -0.912817 -0.116354 168 77 52
-0.250216 -0.823344 -0.27369 53 28 14
-0.369259 -0.873264 0.193635 138 108 96
-0.325181 -0.875673 -0.299358 174 122 105
-0.636385 -1.04883 -0.0891086 130 111 106
-0.641165 -1.05724 -0.0335963 138 111 98
-1.46561 -0.475456 -0.526302 88 91 112
-0.681641 -0.661218 -0.53903 158 31 30
-0.681641 -0.661218 -0.53903 158 31 30
-0.447804 -0.701421 -0.070299 88 68 40
-0.393835 -0.800024 -0.360866 194 144 110
-0.393835 -0.800024 -0.360866 194 144 110
-0.377982 -0.860521 -0.212831 160 121 104
-0.400591 -0.90607 -0.202011 182 156 134
-0.482373 -0.8273 -0.216274 120 88 69
-0.445924 -0.83969 -0.306517 110 63 40
-0.373917 -0.82617 -0.156812 133 85 64
-0.46263 -0.890516 -0.191858 88 45 26
-0.471504 -0.912334 -0.149514 64 16 8
-0.333796 -0.869937 -0.313029 50 22 12
-0.323341 -0.881531 -0.219403 58 32 8
-0.295759 -0.874473 -0.199527 38 14 2
-0.820372 -0.500706 -0.503461 134 112 102
-0.50127 -0.686339 -0.199431 141 104 80
-0.452236 -0.761197 -0.315866 150 111 97
-0.43289 -0.785592 -0.343275 126 84 68
-0.430879 -0.811001 -0.327113 172 150 144
-0.342446 -0.849139 -0.173595 143 117 93
-0.708629 -0.606717 -0.382909 137 30 22
-1.30163 -0.328358 -0.658433 22 12 24
-1.24469 -0.290811 -0.753794 96 20 14
-1.24695 -0.307927 -0.744629 150 120 106
-1.3379 -0.408614 -0.56759 84 24 10
-1.34309 -0.438816 -0.559207 162 147 127
-1.2478 -0.309554 -0.723808 98 10 6
-1.25592 -0.354709 -0.691091 108 17 7
-1.20168 -0.307479 -0.704697 152 130 116
-1.20585 -0.257104 -0.529483 157 139 118
-1.28791 -0.279607 -0.353833 30 8 4
-1.1189 -0.140727 -0.575405 104 63 28
-1.20145 -0.265424 -0.401178 106 67 54
-1.20149 -0.301028 -0.402067 138 96 77
-1.19393 -0.343316 -0.424477 136 94 74
-1.15815 -0.327521 -0.482372 168 122 98
-1.2763 -0.394761 -0.234993 164 110 87
-1.13128 -0.277339 -0.450683 192 148 128
-1.24956 -0.346228 -0.188667 157 145 98
-1.17603 -0.380557 -0.375771 126 81 56
-1.1192 -0.29063 -0.422227 169 120 97
-1.16414 -0.354165 -0.343714 82 38 20
-1.10925 -0.294514 -0.253312 82 38 15
-1.0891 -0.426694 -0.404746 150 103 93
-1.08961 -0.449567 -0.398439 56 14 4
-1.06843 -0.269663 -0.214024 90 57 23
-1.04168 -0.193817 -0.162366 156 144 121
-1.07809 -0.454627 -0.324492 152 104 82
-1.042 -0.247518 -0.194622 80 46 16
-0.983187 -0.260093 -0.32195 150 132 108
-1.03489 -0.304622 -0.219172 60 20 5
-1.02627 -0.275464 -0.173832 94 58 26
-1.03805 -0.46879 -0.326629 77 30 12
-1.04251 -0.467903 -0.315604 126 79 55
-1.03 -0.408983 -0.247476 167 117 85
-1.08292 -0.40476 -0.0984738 45 20 6
-1.01674 -0.474441 -0.327363 152 100 86
-1.01708 -0.432549 -0.251148 110 65 37
-1.0212 -0.445761 -0.242397 132 82 54
-1.0212 -0.445761 -0.242397 132 82 54
-0.873946 -0.344033 -0.448043 132 78 56
-0.84322 -0.320334 -0.423792 201 154 130
-0.900957 -0.446261 -0.221772 26 8 1
-0.843082 -0.536371 -0.502097 156 128 118
-0.831203 -0.550902 -0.506576 92 68 58
-0.910305 -0.494539 -0.159839 142 122 96
-0.832274 -0.555411 -0.415438 136 30 20
-0.863731 -0.673118 -0.472524 20 12 10
-0.760352 -0.602727 -0.479852 87 80 65
-0.790017 -0.685791 -0.51714 44 31 16
-0.791531 -0.688173 -0.518118 44 31 16
-0.789269 -0.70817 -0.504512 56 40 28
-0.712741 -0.636251 -0.499426 84 68 62
-0.732777 -0.694795 -0.526619 175 160 158
-0.72257 -0.700401 -0.452057 154 136 121
-0.715021 -0.690764 -0.442369 153 137 118
-0.710661 -0.70534 -0.445004 152 136 118
-0.640834 -0.618927 -0.439779 78 64 53
-0.623139 -0.55245 -0.235652 156 145 123
-0.658483 -0.675868 -0.446752 150 132 118
-0.655299 -0.679377 -0.465534 147 129 116
-0.66925 -0.697129 -0.461199 101 80 71
-0.666841 -0.693647 -0.459931 101 80 71
-0.653592 -0.679418 -0.443363 96 76 61
-0.267774 -0.0974225 0.304364 92 92 52
-0.472316 -0.591686 -0.235568 122 100 78
-0.551118 -0.658109 -0.124162 155 146 125
-0.536656 -0.684136 -0.167945 43 14 6
-0.549614 -0.702381 -0.179428 43 14 6
-0.747985 -0.845467 0.0293223 158 126 102
-0.726942 -0.833037 0.00721167 96 90 69
-0.707662 -0.821265 -0.00637488 102 81 46
-0.704061 -0.816064 -0.000991011 102 81 46
-0.552537 -0.701897 -0.115052 158 140 118
-0.700947 -0.822363 -0.0128753 166 139 116
-0.531151 -0.700561 -0.171816 50 29 12
-0.531151 -0.700561 -0.171816 50 29 12
-0.561871 -0.717373 -0.114668 72 42 18
-0.534667 -0.705524 -0.161629 98 71 42
-0.504876 -0.678155 -0.164564 112 92 56
-0.702859 -0.832768 -0.0275883 98 70 34
-0.742847 -0.84234 0.0890381 154 138 118
-0.566961 -0.723736 -0.106241 94 66 40
-0.499934 -0.673143 -0.155645 116 94 64
-0.716041 -0.847041 -0.0239216 160 134 116
-0.732058 -0.863789 -0.0229482 101 90 70
-0.616673 -0.767777 -0.0785493 158 130 96
-0.61606 -0.780054 -0.112362 198 166 148
-0.754622 -0.883838 -0.00277202 152 128 108
-0.603816 -0.778663 -0.112751 156 128 115
-0.602113 -0.775053 -0.102733 52 30 22
-0.766665 -0.906746 -0.00280386 106 66 34
-0.503316 -0.707564 -0.169675 84 66 48
-0.716675 -0.873479 -0.0375559 84 68 59
-0.588814 -0.771026 -0.101147 106 69 50
-0.588391 -0.773329 -0.0647403 98 24 9
-0.703666 -0.879176 -0.0683283 102 64 26
-0.588275 -0.768968 -0.0458989 145 140 91
-0.582545 -0.779421 -0.094447 164 128 108
-0.556014 -0.765774 -0.109557 160 122 102
-0.579899 -0.782053 -0.0786596 100 32 11
-0.700447 -0.889525 -0.0677644 151 116 94
-0.4327 -0.66247 -0.0955366 120 106 74
-0.535367 -0.759962 -0.114303 106 71 48
-0.430745 -0.683859 -0.142145 69 42 17
-0.517392 -0.760177 -0.0859974 75 92 77
-0.471195 -0.753815 -0.237771 145 118 106
-0.441012 -0.710899 -0.0848154 42 22 8
-0.535435 -0.776828 -0.00709434 152 150 99
-0.484079 -0.741483 -0.0489346 65 50 24
-0.469038 -0.785353 -0.306282 114 65 43
-0.542917 -0.804768 -0.0391841 152 150 97
-0.454756 -0.782971 -0.308608 198 174 170
-0.403117 -0.761717 -0.368922 178 150 144
-0.498358 -0.815733 -0.223817 69 28 12
-0.533823 -0.829257 -0.0573734 76 76 47
-0.533822 -0.829311 -0.0573827 76 76 47
-0.527933 -0.831833 -0.0733203 88 76 58
-0.547526 -0.844443 -0.0467773 77 85 64
-0.700894 -0.943543 0.130131 152 148 92
-0.466224 -0.81653 -0.213465 116 85 70
-0.550368 -0.863457 -0.0545102 156 130 116
-0.56022 -0.879407 -0.0957141 82 82 66
-0.522443 -0.86499 -0.166334 123 86 68
-0.566425 -0.886136 -0.0826207 90 88 70
-0.441709 -0.82745 -0.308874 202 162 144
-0.467045 -0.839917 -0.216416 182 156 136
-0.471876 -0.844513 -0.219795 182 156 136
-0.513739 -0.875675 -0.194577 67 24 9
-0.45091 -0.844763 -0.310363 111 63 37
-0.544655 -0.876803 -0.0521086 166 136 126
-0.559379 -0.908452 -0.126774 142 48 24
-0.428059 -0.837662 -0.309667 116 71 46
-0.568425 -0.91799 -0.113637 127 17 7
-0.512374 -0.888084 -0.19481 62 25 12
-0.441606 -0.841843 -0.226352 20 19 16
-0.441172 -0.853145 -0.250226 174 144 130
-0.424308 -0.849952 -0.306459 176 130 110
-0.51133 -0.891877 -0.140726 19 17 21
-0.552446 -0.92278 -0.126883 116 22 0
-0.654371 -0.996122 -0.0893521 64 40 30
-0.662002 -1.0036 -0.0969759 64 40 30
-0.681313 -0.982879 0.134315 152 146 95
-0.661394 -0.99913 0.00176089 174 132 110
-0.664088 -1.01251 -0.0839761 170 144 137
-0.688324 -0.998592 0.136113 152 144 104
-0.4475 -0.868296 -0.18949 166 113 92
-0.416177 -0.85453 -0.237046 114 101 84
-0.544592 -0.935682 -0.12524 82 21 4
-0.516363 -0.916591 -0.131714 22 11 12
-0.535514 -0.930586 -0.126923 76 20 6
-0.646647 -1.01328 -0.0908256 96 74 64
-0.530181 -0.912015 -0.0121261 129 82 56
-0.666707 -1.02957 -0.0777109 82 59 50
-0.463292 -0.894582 -0.193663 72 27 11
-0.501607 -0.918627 -0.1516 32 16 9
-0.508776 -0.923976 -0.146877 38 16 7
-0.464608 -0.896999 -0.184122 191 125 96
-0.641269 -1.01722 -0.0893867 157 137 130
-0.517945 -0.925466 -0.0741327 94 46 26
-0.626028 -1.00966 -0.0874067 157 136 127
-0.676885 -1.01476 0.157732 154 100 72
-0.66579 -1.04263 -0.0686103 93 75 70
-0.474915 -0.917554 -0.170273 56 25 19
-0.5249 -0.945328 -0.0987873 166 113 94
-0.447183 -0.902772 -0.151558 67 26 14
-0.397386 -0.873825 -0.169017 39 14 4
-0.465504 -0.912843 -0.079047 12 6 6
-0.435179 -0.880687 0.0464559 53 14 3
-0.651261 -1.05392 -0.0991324 186 169 166
-0.668775 -1.06451 -0.0545389 230 213 209
-0.662154 -1.03306 0.15543 112 80 44
-0.642128 -1.04386 -0.0430986 194 178 175
-0.469632 -0.932725 -0.0925087 158 86 59
-0.631813 -1.04602 -0.0757945 193 176 172
-0.506745 -0.957159 -0.0274396 22 10 2
-0.378554 -0.860805 0.0927173 158 115 98
-0.42858 -0.898323 0.0296502 20 8 6
-0.388632 -0.895544 -0.179794 184 156 134
-0.434077 -0.925568 -0.155493 54 20 4
-0.431405 -0.925055 -0.154788 58 26 8
-0.622598 -1.05208 -0.0909242 178 159 154
-0.721153 -1.12518 -0.0984762 146 106 86
-0.516172 -0.976024 -0.0152693 175 155 149
-0.438069 -0.9352 -0.12087 106 62 43
-0.420881 -0.907064 0.0241339 17 9 5
-0.465074 -0.958709 -0.108846 176 142 120
-0.299672 -0.868195 -0.301315 98 70 58
-0.299672 -0.868195 -0.301315 98 70 58
-0.379397 -0.903124 -0.0937818 140 72 46
-0.265552 -0.856783 -0.292294 190 166 152
-0.412146 -0.922364 0.0356549 153 146 98
-0.464582 -0.973131 -0.105893 178 150 129
-0.268961 -0.861838 -0.289748 38 22 10
-0.327996 -0.878082 -0.0693657 142 79 55
-0.31827 -0.874855 -0.0808679 125 84 64
-0.597491 -1.06292 -0.0726896 132 18 18
-0.422285 -0.955024 -0.119698 176 149 126
-0.43645 -0.96568 -0.121903 56 30 10
-0.278367 -0.878149 -0.26347 138 80 53
-1.04618 -1.41167 -0.471876 156 109 88
-0.655557 -1.12038 -0.0550305 93 70 51
-0.269351 -0.885363 -0.208924 112 80 52
-0.554295 -1.06038 -0.0652888 165 146 138
-0.564726 -1.07074 -0.0521046 92 106 88
-0.545274 -1.06091 -0.0468025 91 94 78
-0.589541 -1.0918 -0.045994 121 78 55
-0.593207 -1.09496 -0.0500084 121 78 55
-0.578513 -1.08639 -0.0474837 154 136 125
-0.556548 -1.07575 -0.0508396 158 141 124
-0.556548 -1.07575 -0.0508396 158 141 124
-0.524888 -1.06067 -0.0547497 102 66 42
-0.591422 -1.10205 -0.042863 164 122 98
-0.540448 -1.07138 -0.0411931 100 100 86
-0.583999 -1.10105 -0.0393447 112 67 42
-0.572124 -1.09428 -0.0431456 155 136 129
-0.557626 -1.08813 -0.0385957 115 102 88
-0.581742 -1.10374 -0.0394581 166 122 102
-0.524927 -1.07191 -0.0420573 118 88 65
-0.573866 -1.10429 -0.0318938 100 56 31
-0.518773 -1.07379 -0.0437122 154 134 112
-0.498155 -1.06328 -0.0311385 82 54 21
-0.498633 -1.06343 -0.0315593 82 54 21
-0.570398 -1.11169 -0.0297207 120 78 50
-0.491105 -1.06227 -0.0138891 150 132 112
-0.491105 -1.06227 -0.0138891 150 132 112
-0.528171 -1.09124 -0.033714 96 30 22
-0.51078 -1.07966 -0.0244714 137 94 81
-0.489551 -1.0572 0.153934 162 137 115
-0.559105 -1.11392 -0.0156157 152 136 124
-0.504112 -1.08457 -0.0017381 167 128 95
-0.480373 -1.06053 0.16147 99 64 26
-0.498345 -1.08701 -0.0040562 86 60 22
-0.494857 -1.08692 0.0124455 108 78 44
-0.497495 -1.08647 0.0948387 154 129 106
-0.496465 -1.08557 0.0962342 154 129 106
-0.504287 -1.09524 0.029908 108 100 68
-0.486522 -1.08084 0.113885 101 70 33
-0.481787 -1.08197 0.124605 98 62 28
-0.481787 -1.08197 0.124605 98 62 28
-0.491586 -1.09037 0.0850686 104 72 37
-1.26194 -0.325825 -0.740103 104 12 12
-1.31999 -0.468514 -0.645236 130 110 114
-1.2472 -0.351464 -0.651757 114 26 22
-1.18948 -0.456607 -0.785307 120 14 20
-1.26114 -0.41954 -0.55043 154 106 48
-1.33729 -0.370933 -0.288875 35 12 9
-1.30279 -0.406093 -0.243103 37 16 7
-1.19293 -0.284332 -0.415004 67 28 12
-1.14559 -0.308826 -0.241412 90 51 20
-1.14856 -0.330723 -0.126954 150 146 90
-1.03527 -0.359128 -0.321664 88 37 24
-1.0526 -0.469095 -0.373089 65 13 3
-0.983611 -0.287202 -0.318642 72 32 14
-0.936027 -0.419794 -0.265756 101 59 43
-1.00015 -0.474704 -0.133263 26 8 4
-0.812039 -0.349213 -0.449021 125 74 51
-0.842892 -0.538031 -0.51148 89 63 52
-0.839558 -0.597006 -0.53939 156 129 116
-0.848673 -0.652457 -0.484366 39 4 1
-0.729342 -0.522398 -0.577977 67 33 24
-0.712429 -0.670492 -0.544479 66 25 18
-0.676549 -0.671742 -0.463786 113 102 96
-0.700934 -0.822351 -0.0128494 168 144 120
-0.566621 -0.723363 -0.10606 100 72 46
-0.590423 -0.773481 -0.102421 102 65 46
-0.60754 -0.787608 -0.0930849 156 125 95
-0.501326 -0.709255 -0.172389 26 14 8
-0.747256 -0.930785 -0.0369152 100 60 26
-0.461802 -0.686626 -0.0951255 158 150 126
-0.711767 -0.907829 -0.0727938 108 72 49
-0.557487 -0.778291 -0.061374 124 36 23
-0.557487 -0.778291 -0.061374 124 36 23
-0.723199 -0.955757 -0.00753265 124 8 8
-0.387037 -0.78755 -0.375079 178 157 151
-0.697936 -0.994026 -0.0763016 170 144 137
-0.419915 -0.803525 -0.252232 126 82 62
-0.47123 -0.851058 -0.225974 185 160 144
-0.467316 -0.843715 -0.20236 122 94 81
-0.66453 -0.989933 -0.0877739 116 91 80
-0.632141 -0.968216 -0.0930293 134 86 62
-0.650668 -0.99715 -0.0982369 158 137 130
-0.451809 -0.863861 -0.187028 102 60 38
-0.702109 -1.03783 -0.07183 166 140 135
-0.677454 -1.00023 0.148183 101 46 21
-0.694945 -1.05194 -0.0618018 119 98 94
-0.658433 -1.01526 0.122839 160 109 84
-0.466776 -0.915991 -0.156967 52 12 4
-0.658211 -1.04167 -0.0457514 62 46 41
-0.67949 -1.06037 -0.0601405 82 60 52
-0.661037 -1.04072 0.00612106 11 12 12
-0.643579 -1.03825 -0.0705683 69 55 47
-0.361475 -0.865252 -0.301211 142 110 100
-0.888371 -1.26696 -0.437369 124 83 54
-0.268382 -0.8164 -0.333253 150 116 104
-0.668273 -1.07552 -0.0481761 122 79 54
-0.277158 -0.843668 -0.239311 212 195 191
-0.577133 -1.02762 -0.0187391 176 153 147
-0.646449 -1.10449 -0.0403729 102 76 56
-0.525832 -1.0724 -0.0427632 122 90 69
-0.525832 -1.0724 -0.0427632 122 90 69
-0.554144 -1.09488 -0.0331296 159 137 132
-0.476499 -1.07353 0.149947 154 148 96
-1.30228 -0.37763 -0.660569 26 15 29
-1.1823 -0.317556 -0.786423 126 14 16
-1.17756 -0.203534 -0.401749 166 138 110
-1.17719 -0.370394 -0.371084 96 53 28
-1.08931 -0.449716 -0.405471 135 94 80
-1.03841 -0.323061 -0.227909 62 22 7
-0.989557 -0.18669 -0.115534 115 74 46
-1.08811 -0.456939 -0.122164 64 18 2
-0.822727 -0.330853 -0.574888 164 140 130
-0.822727 -0.330853 -0.574888 164 140 130
-1.08587 -0.484683 -0.0868035 90 58 41
-0.84479 -0.295095 -0.437287 195 144 120
-0.85622 -0.349777 -0.474562 226 174 135
-0.901551 -0.447362 -0.222128 29 8 1
-0.866583 -0.630842 -0.532884 128 104 96
-0.891742 -0.683998 -0.529586 154 126 114
-0.74746 -0.495622 -0.565596 143 106 98
-0.828256 -0.393347 -0.159814 157 146 123
-0.80916 -0.699364 -0.513313 90 86 71
-0.653229 -0.688593 -0.469745 106 86 77
-0.65602 -0.694942 -0.463879 146 128 122
-0.664238 -0.704776 -0.451833 104 88 76
-0.483041 -0.594352 -0.138571 150 138 118
-0.545655 -0.699605 -0.249583 94 64 32
-0.736041 -0.804227 0.128114 145 138 90
-0.705323 -0.812957 0.0179507 100 90 64
-0.478404 -0.649785 -0.186212 142 114 95
-0.571222 -0.721174 -0.111484 160 137 114
-0.699746 -0.828672 -0.0239474 98 69 31
-0.610523 -0.770406 -0.117914 170 138 123
-0.617456 -0.770473 -0.0863314 90 52 23
-0.548111 -0.707828 0.0062912 145 142 92
-0.534975 -0.734389 -0.133285 154 126 108
-0.611646 -0.795597 -0.0909164 172 132 108
-0.459699 -0.691461 -0.137926 94 74 42
-0.521808 -0.753471 -0.107371 102 80 64
-0.418942 -0.671365 -0.135326 68 41 14
-0.703523 -0.91989 -0.0992125 100 58 26
-0.50353 -0.735524 -0.052787 18 26 14
-0.50353 -0.735524 -0.052787 18 26 14
-0.686531 -0.94445 -0.106494 138 94 72
-0.496508 -0.804396 -0.102852 161 130 117
-0.394594 -0.74459 -0.182146 184 160 150
-0.552728 -0.871647 -0.0882898 82 82 66
-0.413539 -0.818476 -0.362459 194 143 107
-0.580456 -0.921176 -0.103104 109 28 17
-0.456037 -0.845582 -0.21735 42 28 20
-0.67986 -0.977837 0.128279 155 132 102
-0.674103 -1.03001 -0.0874737 174 148 142
-0.439007 -0.87017 -0.193733 132 86 66
-0.671517 -1.03396 -0.0821039 86 63 54
-0.691614 -1.02373 0.147752 210 159 134
-0.681327 -1.0479 -0.0737639 94 71 64
-0.657022 -1.03245 -0.0932042 85 67 60
-0.657804 -1.00753 0.107825 126 80 48
-0.675072 -1.04868 -0.0766533 81 62 55
-0.66844 -1.04509 -0.0709131 95 78 71
-0.676123 -1.06019 -0.0544267 198 174 166
-0.37518 -0.88293 0.0147903 92 76 72
-0.445383 -0.954843 -0.130708 126 70 44
-0.269927 -0.848929 -0.181339 60 32 10
-0.657295 -1.09902 -0.0558946 152 108 85
-0.531125 -1.05783 -0.0618033 108 74 52
-0.530272 -1.06993 -0.0503772 176 152 140
-0.547513 -1.10885 0.00898307 110 78 48
-0.554296 -1.12338 0.0039739 106 66 36
-1.32889 -0.415523 -0.568505 66 10 0
-1.29605 -0.286502 -0.359227 170 144 128
-1.27504 -0.387033 -0.275501 147 88 73
-1.18621 -0.390476 -0.383726 90 47 22
-1.04419 -0.47449 -0.33949 106 58 44
-0.830109 -0.53879 -0.501883 158 134 121
-0.826043 -0.542261 -0.500087 158 134 122
-0.806703 -0.64494 -0.532838 60 45 40
-1.03095 -0.991827 -0.494073 150 141 118
-0.721752 -0.821064 0.0379012 99 92 70
-0.473294 -0.774819 -0.200918 162 124 107
-0.544857 -0.837311 -0.0349952 80 78 51
-0.424248 -0.873886 -0.209438 118 94 76
-0.65428 -1.0428 -0.0545881 171 153 148
-0.403361 -0.915041 -0.13207 157 142 119
-0.464215 -0.966703 -0.0916687 140 102 64
-1.38042 -0.267294 -0.588384 163 141 126
-1.41513 -0.343141 -0.570719 183 152 147
-1.40776 -0.337518 -0.575932 68 24 19
-1.42535 -0.348734 -0.509081 158 142 125
-1.42629 -0.369 -0.488477 20 28 72
-1.26087 -0.237493 -0.704365 126 20 16
-1.28934 -0.300155 -0.638777 22 18 32
-1.29642 -0.30424 -0.620908 126 120 126
-1.29642 -0.30424 -0.620908 126 120 126
-1.27569 -0.290675 -0.622928 23 20 36
-1.27118 -0.292092 -0.622276 128 124 132
-1.30106 -0.324224 -0.549473 86 13 10
-1.10545 -0.136951 -0.689046 132 13 13
-1.1923 -0.246991 -0.637513 130 22 22
-1.1923 -0.246991 -0.637513 130 22 22
-1.22705 -0.191616 -0.437337 158 143 123
-1.04732 -0.0627628 -0.543758 100 64 35
-1.23046 -0.317394 -0.516795 161 118 60
-1.13826 -0.155866 -0.377478 72 32 16
-1.01986 -0.116848 -0.549361 126 78 56
-1.11878 -0.237686 -0.428527 196 155 133
-1.11442 -0.294833 -0.342535 94 55 29
-1.11797 -0.315794 -0.377093 120 68 49
-1.09582 -0.312142 -0.411117 100 56 36
-0.939674 -0.203177 -0.519966 140 92 73
-1.00355 -0.193023 -0.177469 100 70 41
-1.00562 -0.204896 -0.176236 162 152 130
-0.922739 -0.232143 -0.50805 76 34 23
-1.0811 -0.368423 -0.390031 178 122 103
-0.861469 -0.198816 -0.436164 74 26 14
-0.861469 -0.198816 -0.436164 74 26 14
-1.05878 -0.380989 -0.377759 66 24 12
-0.801386 -0.181488 -0.477147 165 138 130
-1.05571 -0.381561 -0.269778 144 100 74
-0.848345 -0.229741 -0.452933 198 150 119
-0.848345 -0.229741 -0.452933 198 150 119
-1.05661 -0.411046 -0.289659 106 70 40
-1.05622 -0.398647 -0.10516 64 13 2
-1.05622 -0.398647 -0.10516 64 13 2
-0.994512 -0.356925 -0.139719 80 35 10
-1.0073 -0.413967 -0.32103 154 102 90
-0.812596 -0.274016 -0.438058 114 62 35
-0.8526 -0.29347 -0.353249 174 126 107
-0.954287 -0.391348 -0.306338 120 72 50
-0.799003 -0.288009 -0.451562 186 133 106
-0.825559 -0.307897 -0.430907 175 119 99
-0.803705 -0.294737 -0.438206 108 58 32
-0.962177 -0.411055 -0.309471 108 66 42
-0.811297 -0.308376 -0.404805 182 132 110
-0.96422 -0.444103 -0.117299 32 12 7
-0.749071 -0.336174 -0.393246 154 115 99
-0.749071 -0.336174 -0.393246 154 115 99
-0.859342 -0.406674 -0.211513 72 46 29
-0.703996 -0.337889 -0.386989 102 66 38
-0.909573 -0.46064 -0.144349 142 95 74
-0.88902 -0.461132 -0.175811 157 110 90
-0.819795 -0.476278 -0.491824 92 73 60
-0.819795 -0.476278 -0.491824 92 73 60
-0.819795 -0.476278 -0.491824 92 73 60
-0.820885 -0.491085 -0.498793 88 66 60
-0.673675 -0.367734 -0.3617 102 69 38
-0.819362 -0.489538 -0.492675 154 134 121
-0.811462 -0.488758 -0.500052 96 72 66
-0.811462 -0.488758 -0.500052 96 72 66
-0.735884 -0.42949 -0.428668 160 140 126
-0.797538 -0.498664 -0.512889 148 123 110
-0.669298 -0.392616 -0.383301 166 144 131
-0.789164 -0.488865 -0.478597 154 132 116
-0.778005 -0.483084 -0.460094 158 134 118
-0.768597 -0.481595 -0.462327 114 30 24
-0.812558 -0.520938 -0.482006 136 25 18
-0.759317 -0.493547 -0.49734 144 26 24
-0.822443 -0.604556 -0.516579 144 24 22
-0.81255 -0.607913 -0.531142 50 38 32
-0.795782 -0.600712 -0.544635 127 109 103
-0.716585 -0.561792 -0.591162 156 128 126
-0.66249 -0.52056 -0.448669 144 20 20
-0.808495 -0.613424 -0.526235 58 44 39
-0.799235 -0.613301 -0.53895 24 11 6
-0.693968 -0.557622 -0.576152 66 38 38
-0.804511 -0.619385 -0.525351 69 58 56
-0.79421 -0.618701 -0.519796 138 125 124
-0.705348 -0.581024 -0.562585 134 96 96
-0.822665 -0.645024 -0.49601 44 13 8
-0.815834 -0.648667 -0.504611 45 31 18
-0.812594 -0.654321 -0.498956 86 81 65
-0.805199 -0.660152 -0.490871 42 12 8
-0.792469 -0.667692 -0.497839 60 38 26
-0.757487 -0.654122 -0.518668 60 44 38
-0.7534 -0.653232 -0.521525 132 116 110
-0.754922 -0.658086 -0.513885 68 52 46
-0.748147 -0.658083 -0.524431 32 17 12
-0.754659 -0.662227 -0.517691 144 130 124
-0.679288 -0.626066 -0.529524 134 32 33
-0.7561 -0.67064 -0.506888 129 113 112
-0.734605 -0.660636 -0.524063 170 158 156
-0.724936 -0.660875 -0.498268 158 136 135
-0.665333 -0.665718 -0.500457 152 134 122
-0.648295 -0.666435 -0.45126 202 184 178
-0.430782 -0.576015 -0.222557 92 80 58
-0.421284 -0.579899 -0.138235 108 78 48
-0.481188 -0.62483 -0.208713 104 70 49
-0.266739 -0.529396 0.269374 164 162 114
-0.470416 -0.632968 -0.173613 134 83 54
-0.417132 -0.623412 -0.331459 71 34 16
-0.520422 -0.676107 -0.171087 150 120 103
-0.502401 -0.669462 -0.174426 20 14 8
-0.420715 -0.639248 -0.328821 144 120 105
-0.522865 -0.683859 -0.154546 160 128 110
-0.532646 -0.691054 -0.167675 150 124 108
-0.43311 -0.65258 -0.322099 134 122 112
-0.677151 -0.760941 0.0925295 164 156 109
-0.677151 -0.760941 0.0925295 164 156 109
-0.670373 -0.758071 0.0894248 124 72 40
-0.481809 -0.678963 -0.165884 76 40 14
-0.771127 -0.804586 0.0634047 126 68 28
-0.677215 -0.766581 0.0930186 130 74 47
-0.657616 -0.761247 0.0804994 164 156 117
-0.608127 -0.73896 -0.195151 88 60 28
-0.48423 -0.688379 -0.181352 136 106 88
-0.470445 -0.688026 -0.189905 172 136 118
-0.614665 -0.750988 -0.108777 154 122 104
-0.501359 -0.705447 -0.172042 34 18 9
-0.685273 -0.781932 0.00905506 162 158 116
-0.699036 -0.788098 0.0117602 87 66 36
-0.733641 -0.805845 0.0340584 86 74 54
-0.703561 -0.794002 0.034819 76 74 52
-0.619215 -0.762433 -0.0857388 97 56 34
-0.709619 -0.799925 -0.00446096 98 69 36
-0.544702 -0.735504 -0.00729905 163 158 114
-0.58432 -0.755181 -0.0499685 91 19 11
-0.535074 -0.737472 -0.133448 144 116 103
-0.535074 -0.737472 -0.133448 144 116 103
-0.534282 -0.740507 7.94059e-05 86 38 14
-0.59772 -0.763769 -0.104511 152 124 112
-0.46959 -0.713264 -0.219192 132 112 92
-0.561672 -0.753588 0.00523085 121 65 33
-0.561672 -0.753588 0.00523085 121 65 33
-0.578545 -0.761733 0.00467547 164 160 110
-0.601976 -0.772301 -0.0862481 161 127 109
-0.601976 -0.772301 -0.0862481 161 127 109
-0.544704 -0.749599 -0.122539 44 11 0
-0.607897 -0.776366 -0.0778144 98 46 20
-0.607308 -0.778456 -0.0831352 167 128 108
-0.420499 -0.709883 -0.0794869 46 32 10
-0.624515 -0.789219 -0.0683746 96 43 22
-0.564911 -0.771517 -0.0963568 140 106 88
-0.587946 -0.783959 -0.0140178 108 46 24
-0.855774 -0.879806 -0.206761 107 48 26
-0.561127 -0.772166 -0.099729 36 31 16
-0.569454 -0.787512 0.0169757 170 150 110
-0.558034 -0.783201 -0.0184614 86 50 24
-0.51035 -0.767162 -0.039176 72 41 16
-0.323541 -0.698596 -0.0556919 114 104 75
-0.553237 -0.784854 -0.0298389 162 154 113
-0.779147 -0.873306 0.00700578 102 62 32
-0.73887 -0.862902 -0.0384407 142 125 115
-0.723211 -0.863496 -0.0487239 142 116 106
-0.592837 -0.832479 0.227427 102 85 48
-0.454148 -0.762832 -0.318985 150 114 102
-0.462323 -0.770605 -0.312332 113 72 54
-0.782189 -0.893942 -0.022762 146 106 84
-0.513264 -0.793516 -0.223537 124 99 91
-0.46149 -0.780551 -0.118502 69 52 36
-0.735422 -0.882992 -0.0507154 94 66 56
-0.403007 -0.781149 0.0695633 54 43 8
-0.396723 -0.761058 -0.365243 146 119 114
-0.469084 -0.789484 -0.302434 147 104 86
-0.480531 -0.799211 -0.225219 158 126 110
-0.529581 -0.823908 -0.052292 54 46 28
-0.492253 -0.804478 -0.220873 32 7 1
-0.418911 -0.783123 -0.348267 134 85 70
-0.765835 -0.912199 -0.0459346 91 46 22
-0.765835 -0.912199 -0.0459346 91 46 22
-0.729835 -0.900548 -0.0669269 114 12 10
-0.762663 -0.913352 -0.0486274 138 93 71
-0.762663 -0.913352 -0.0486274 138 93 71
-0.717485 -0.90154 -0.0703268 130 92 82
-0.562339 -0.847346 -0.19031 183 118 92
-0.555596 -0.856881 -0.0518754 119 94 81
-0.445744 -0.810164 -0.314506 114 70 51
-0.723753 -0.912759 -0.0734201 94 14 16
-0.721923 -0.912462 -0.0786991 34 5 5
-0.546744 -0.862636 -0.076005 160 132 120
-0.450643 -0.821645 -0.298127 73 30 13
-0.719674 -0.921893 -0.0791167 134 108 100
-0.719674 -0.921893 -0.0791167 134 108 100
-0.438003 -0.829154 -0.322528 166 144 135
-0.522175 -0.863405 -0.191336 129 82 60
-0.472523 -0.847165 -0.224896 178 150 137
-0.701061 -0.924255 -0.0969537 156 130 122
-0.691257 -0.921607 -0.101767 84 46 26
-0.750195 -0.946356 -0.0597136 160 133 125
-0.750195 -0.946356 -0.0597136 160 133 125
-0.435259 -0.842545 -0.231292 126 107 95
-0.450864 -0.842995 -0.302631 155 114 96
-0.508834 -0.871842 -0.18529 144 102 88
-0.565203 -0.895321 -0.0960632 110 12 8
-0.624137 -0.933898 0.16875 111 70 42
-0.412644 -0.844474 -0.243802 191 169 158
-0.412644 -0.844474 -0.243802 191 169 158
-0.754592 -0.957491 -0.0543031 102 58 34
-0.576091 -0.90191 -0.12262 161 73 52
-0.523362 -0.891674 -0.142348 12 8 10
-0.482737 -0.87931 -0.167301 132 92 80
-0.558637 -0.905865 -0.129132 156 64 39
-0.681986 -0.96357 0.153621 166 150 109
-0.695038 -0.9665 0.130273 157 130 98
-0.70415 -0.969575 0.109175 157 108 86
-0.491365 -0.884439 -0.216487 135 88 72
-0.562039 -0.914635 -0.0802131 110 24 20
-0.571966 -0.917791 -0.100697 114 12 8
-0.501459 -0.892424 -0.180412 23 8 4
-0.699311 -0.976204 0.131983 102 62 28
-0.390168 -0.867498 -0.181191 27 14 12
-0.688043 -0.958897 -0.0960996 160 138 128
-0.607454 -0.937289 -0.107076 92 39 28
-0.562243 -0.926482 -0.0900657 154 91 72
-0.66202 -0.980929 0.229319 162 153 106
-0.345324 -0.860395 -0.211087 180 159 148
-0.393843 -0.876001 -0.177008 124 95 79
-0.393843 -0.876001 -0.177008 124 95 79
-0.501764 -0.90969 -0.152601 120 90 84
-0.516881 -0.919887 -0.13412 140 91 73
-0.508545 -0.917119 -0.145304 46 20 16
-0.48774 -0.91679 -0.167243 48 20 14
-0.48774 -0.91679 -0.167243 48 20 14
-0.681872 -0.993889 0.134358 126 75 43
-0.356889 -0.872166 -0.30211 126 94 78
-1.19311 -1.08091 -0.480388 107 86 82
-0.427784 -0.910092 -0.168106 178 154 138
-0.677267 -1.00979 0.174672 219 174 150
-0.457444 -0.926361 -0.148138 128 86 64
-0.349738 -0.887271 -0.292828 187 154 142
-0.357837 -0.900497 -0.193572 174 148 136
-0.341073 -0.889128 -0.284737 144 98 84
-0.670358 -1.0088 0.114201 15 10 10
-0.674416 -0.993919 -0.0775855 154 134 128
-0.674867 -0.993622 -0.0826601 105 85 80
-0.616248 -1.00738 0.209624 122 84 56
-0.432683 -0.928985 -0.151676 74 48 22
-0.258686 -0.888181 -0.161415 136 93 72
-0.675607 -0.99855 -0.0918871 102 84 77
-0.677777 -0.999985 -0.0839184 175 156 151
-0.306092 -0.891843 -0.288953 40 18 10
-0.275055 -0.893988 -0.257556 138 92 70
-0.698317 -1.01567 -0.0378942 120 84 68
-0.587287 -0.781395 0.00891598 168 148 102
-1.03706 -0.433928 -0.340724 178 126 110
-0.667531 -0.846205 -0.0448277 162 146 104
0.219265 1.01263 -0.0374137 114 88 80
-0.693958 -0.640529 -0.396555 125 39 25
-0.425173 -0.880816 -0.259532 123 90 73
-0.484207 -0.79882 -0.211586 61 18 4
-0.476415 -0.806672 -0.217382 46 22 8
-0.487489 -0.889207 -0.158357 86 62 68
-1.28606 -0.261779 -0.773841 157 122 107
-1.29641 -0.355168 -0.751087 169 113 44
-1.28607 -0.328639 -0.758727 162 107 36
-1.27768 -0.273929 -0.768336 148 16 18
-1.27716 -0.250534 -0.767397 148 16 18
-1.25618 -0.273946 -0.793426 136 16 14
-1.33149 -0.437269 -0.649482 20 12 20
-1.26058 -0.303537 -0.749838 110 9 9
-1.26058 -0.303537 -0.749838 110 9 9
-1.31127 -0.408276 -0.661508 20 16 28
-1.31884 -0.352126 -0.633959 32 20 30
-1.30395 -0.328644 -0.652126 22 17 30
-1.34299 -0.444093 -0.560373 162 148 130
-1.25755 -0.368943 -0.682692 55 2 2
-1.34641 -0.403404 -0.472702 162 147 126
-1.24698 -0.408614 -0.527917 132 14 16
-1.32255 -0.350807 -0.333772 78 45 26
-1.14414 -0.123976 -0.535684 100 64 32
-1.13499 -0.399497 -0.406232 174 112 90
-1.20516 -0.360735 -0.205215 149 143 91
-1.01975 -0.296884 -0.533344 196 142 108
-1.08963 -0.449725 -0.39846 56 14 4
-0.9984 -0.256397 -0.32612 61 26 15
-1.0421 -0.472995 -0.333311 146 99 78
-0.878285 -0.357802 -0.451408 134 80 56
-1.00252 -0.439491 -0.0544481 76 41 24
-0.848265 -0.550697 -0.522176 84 56 48
-0.834142 -0.560448 -0.518988 92 66 56
-0.870379 -0.644968 -0.521221 150 126 118
-0.918667 -0.44125 -0.0623784 145 142 89
-0.917939 -0.49468 -0.133566 92 66 32
-0.79819 -0.594654 -0.579304 149 28 28
-0.772863 -0.3916 -0.341796 174 131 114
-0.81202 -0.641421 -0.53893 102 87 80
-0.761498 -0.679407 -0.520128 144 125 118
-0.779072 -0.701678 -0.500329 94 82 66
-0.761478 -0.705955 -0.52377 82 64 57
-0.738933 -0.69539 -0.51607 98 77 72
-0.737705 -0.657728 -0.398731 138 31 22
-0.692325 -0.665451 -0.47842 77 26 18
-0.673537 -0.670728 -0.527243 149 128 121
-0.67689 -0.673295 -0.470326 88 74 64
-0.66347 -0.682478 -0.453656 83 66 56
-0.748735 -0.846671 0.0282167 150 122 92
-0.74257 -0.834461 0.0717475 102 66 30
-0.743096 -0.850232 0.0594157 150 132 110
-0.617419 -0.773418 -0.108124 170 138 118
-0.502208 -0.696166 -0.173137 128 97 78
-0.716516 -0.873064 -0.0373281 86 68 59
-0.523958 -0.721447 -0.123948 152 122 102
-0.591569 -0.782124 -0.0916095 164 127 109
-0.588981 -0.783982 -0.0875718 110 59 32
-0.700793 -0.841498 0.107867 118 96 80
-0.564056 -0.772698 -0.104244 160 122 104
-0.612931 -0.801985 -0.015497 144 140 90
-0.559567 -0.774968 -0.107313 110 64 39
-0.486393 -0.708079 -0.0937564 33 12 2
-0.421181 -0.643734 -0.0684633 89 70 37
-0.739414 -0.949471 -0.0415785 128 80 58
-0.738537 -0.956932 -0.0399013 102 7 4
-0.695774 -0.928044 -0.0834733 155 128 115
-0.378305 -0.697284 -0.301084 246 226 220
-0.456366 -0.768227 -0.292388 188 140 120
-0.471606 -0.781307 -0.278979 94 52 26
-0.465564 -0.773985 -0.274505 94 52 26
-0.521623 -0.768097 -0.0259737 144 142 88
-0.443698 -0.779636 -0.350371 195 164 158
-0.485855 -0.783508 -0.201112 180 111 82
-0.485582 -0.74158 -0.0320614 90 51 16
-0.488956 -0.744147 -0.0161129 94 68 24
-0.479722 -0.798197 -0.224707 164 134 118
-0.458549 -0.785193 -0.204351 42 19 8
-0.392711 -0.771226 -0.373 174 150 145
-0.394008 -0.772671 -0.373389 174 150 145
-0.409374 -0.783118 -0.351316 138 24 21
-0.422389 -0.806796 -0.293659 112 64 38
-0.562343 -0.886171 -0.0900456 156 127 112
-0.54016 -0.885943 -0.133098 23 16 14
-0.54016 -0.885943 -0.133098 23 16 14
-0.426676 -0.828121 -0.318014 178 152 146
-0.568335 -0.903918 -0.100929 126 12 8
-0.529107 -0.885005 -0.144886 18 10 10
-0.53503 -0.892836 -0.144406 118 108 108
-0.427279 -0.846274 -0.29671 96 50 26
-0.41853 -0.844091 -0.303064 190 147 127
-0.420831 -0.839001 -0.2117 77 36 13
-0.664111 -1.01457 -0.0705195 95 70 60
-0.659294 -1.01324 -0.0802103 62 40 29
-0.659294 -1.01324 -0.0802103 62 40 29
-0.662 -1.01731 -0.0745594 198 173 162
-0.690809 -1.00099 0.132532 153 145 103
-0.688402 -1.00644 0.118158 106 59 26
-0.655775 -1.02659 -0.084118 178 158 152
-0.676786 -1.04113 -0.0617519 68 48 41
-0.523356 -0.928213 -0.105885 90 33 14
-0.624399 -1.00822 -0.0861319 156 136 128
-0.656454 -1.04025 -0.091721 152 135 130
-0.656454 -1.04025 -0.091721 152 135 130
-0.671617 -1.01253 0.120222 117 64 34
-0.648501 -1.03198 -0.0749738 67 53 46
-0.644939 -1.03298 -0.0661726 158 140 133
-0.660051 -1.04801 -0.0650739 177 160 153
-0.620022 -1.01796 -0.07272 76 62 57
-0.636995 -1.0312 -0.0639138 64 50 42
-0.637793 -1.03806 -0.0758054 75 59 54
-0.336571 -0.84823 -0.351692 128 99 86
-0.464963 -0.916657 -0.150359 159 94 68
-0.454639 -0.882016 0.0287906 59 23 5
-0.660724 -1.02872 0.141668 98 64 26
-0.652271 -1.02975 0.11032 18 8 3
-0.627613 -1.04745 -0.0782918 95 76 70
-0.444273 -0.919146 -0.134238 177 146 127
-0.466949 -0.939642 -0.126658 144 76 40
-0.472837 -0.940997 -0.0884553 24 4 2
-0.472837 -0.940997 -0.0884553 24 4 2
-0.376653 -0.886575 -0.187554 184 155 136
-0.432587 -0.924171 -0.154409 54 18 2
-0.466351 -0.942782 -0.0861305 154 96 73
-0.467277 -0.948009 -0.0800236 75 50 42
-0.333797 -0.857376 -0.118441 32 27 22
-0.433143 -0.910438 0.0256056 19 7 2
-0.436793 -0.912909 0.0282856 12 10 8
-0.303631 -0.868685 -0.311922 167 138 116
-0.462471 -0.951634 -0.0772139 163 126 104
-0.597711 -1.06324 -0.0733175 128 23 19
-0.456417 -0.96928 -0.114688 48 34 22
-0.272577 -0.882536 -0.176996 103 63 29
-0.596847 -1.10153 -0.0480378 168 123 102
-0.544207 -1.07498 -0.0582254 152 134 124
-0.533687 -1.07289 -0.0548235 191 166 153
-0.576029 -1.10761 -0.0311539 106 62 35
-0.558022 -1.09127 0.0675599 138 112 91
-0.503536 -1.08099 -0.0159 56 28 18
-0.533347 -1.09862 0.0366389 104 64 32
-0.487938 -1.06611 0.144349 94 62 24
-0.487938 -1.06611 0.144349 94 62 24
-0.484615 -1.06388 0.157164 96 62 24
-0.526603 -1.10504 0.0533518 102 66 30
-0.489073 -1.07191 0.131768 158 138 113
-0.530023 -1.11466 0.0260139 156 140 116
-0.502492 -1.10091 0.0453801 111 82 58
-1.41764 -0.393183 -0.641177 120 22 13
-1.42865 -0.452366 -0.617933 143 43 29
-1.45272 -0.49595 -0.555532 161 144 124
-1.38326 -0.431651 -0.681886 102 3 5
-1.32068 -0.3492 -0.723545 60 36 45
-1.39169 -0.477424 -0.548184 116 14 12
-1.1879 -0.332951 -0.724554 114 20 18
-1.23637 -0.310026 -0.59167 160 140 124
-1.2357 -0.349757 -0.416838 95 44 31
-1.26485 -0.401862 -0.260252 112 56 35
-1.05216 -0.462055 -0.377102 178 121 103
-1.02407 -0.326137 -0.212778 80 31 7
-0.916492 -0.373868 -0.373279 166 113 93
-0.867918 -0.397575 -0.197358 170 150 126
-0.849005 -0.526366 -0.420726 111 64 46
-0.814447 -0.527985 -0.474475 153 119 108
-0.734336 -0.504543 -0.577936 68 30 24
-0.961723 -0.947148 -0.524661 73 40 16
-0.930208 -0.824066 -0.394775 144 136 114
-0.930208 -0.824066 -0.394775 144 136 114
-0.68549 -0.376618 -0.295409 90 66 30
-0.697101 -0.686824 -0.4587 150 131 116
-0.743183 -0.82463 0.0560387 94 68 26
-0.592767 -0.790445 -0.303673 92 57 29
-0.742727 -0.821276 0.0994854 104 66 28
-0.516627 -0.690254 -0.173923 113 89 56
-0.589719 -0.750725 -0.119792 154 124 108
-0.734581 -0.878462 -0.0288406 156 132 118
-0.700653 -0.900164 -0.0679442 179 145 130
-0.643415 -0.857387 -0.0455921 156 140 104
-0.422886 -0.743252 -0.376997 212 188 182
-0.405888 -0.722494 -0.312417 251 236 230
-0.565684 -0.796406 0.0135914 158 146 107
-0.445329 -0.713107 -0.0538174 94 78 49
-0.50904 -0.78121 -0.0703718 128 122 78
-0.536992 -0.839706 -0.178295 189 120 81
-0.53512 -0.838949 -0.180153 206 143 107
-0.660339 -0.942513 -0.102352 164 148 105
-0.525495 -0.81905 -0.0572953 148 140 100
-0.53951 -0.842208 -0.0672174 78 84 65
-0.52411 -0.855655 -0.180902 132 76 51
-0.711962 -0.996594 -0.0392306 192 152 130
-0.558199 -0.923674 -0.252018 184 157 138
-0.647116 -0.994414 -0.0591734 102 75 67
-0.691792 -1.03809 -0.0569035 120 84 70
-0.669684 -1.03205 -0.043436 86 65 57
-0.632311 -1.0123 -0.0750664 89 71 63
-0.658207 -1.03054 -0.0529562 126 106 100
-0.523831 -0.925295 -0.0713508 169 142 132
-0.452465 -0.872857 0.0190074 66 26 11
-0.465228 -0.885597 0.0157612 162 144 112
-0.661906 -1.05089 -0.0304803 138 102 84
-0.642634 -1.04656 -0.0714826 192 173 170
-0.464975 -0.915362 -0.104108 144 77 44
-0.351169 -0.86731 -0.304914 140 105 90
-0.618445 -1.03867 -0.0689349 111 92 86
-0.652198 -1.06148 -0.0421359 118 94 86
-0.467656 -0.926111 -0.0212135 78 26 13
-0.564228 -1.01434 -0.1062 78 26 13
-0.370976 -0.880834 -0.12714 151 130 112
-0.370976 -0.880834 -0.12714 151 130 112
-0.297786 -0.826237 -0.0851427 30 20 12
-0.297786 -0.826237 -0.0851427 30 20 12
-0.327649 -0.856983 -0.132151 130 114 96
-0.341738 -0.863662 -0.105864 150 138 117
-0.451527 -0.950826 -0.070604 112 86 60
-0.466016 -0.966946 -0.0939378 134 96 60
-0.240919 -0.790314 -0.047655 152 140 116
-0.345174 -0.860038 0.0234367 148 136 103
-0.548117 -0.996043 0.167974 116 104 65
-0.698709 -1.13393 -0.0120902 116 104 65
-0.513771 -0.982749 0.195015 106 87 55
-0.513771 -0.982749 0.195015 106 87 55
-0.494942 -0.989549 0.20381 138 108 82
-0.29987 -0.907877 -0.157571 153 136 115
-0.600939 -1.12227 -0.0638887 124 88 70
-0.580389 -1.11394 -0.0466418 162 136 122
-0.539022 -1.10646 -0.0247508 113 20 15
-0.539022 -1.10646 -0.0247508 113 20 15
-0.503485 -1.07609 0.10433 157 134 111
-0.503485 -1.07609 0.10433 157 134 111
-0.494848 -1.10188 0.0671119 98 74 35
-1.27127 -0.277838 -0.784532 146 27 18
-1.07456 -0.505198 -0.0680839 92 64 46
-0.911337 -0.679203 -0.547752 114 83 69
-0.892194 -0.511309 -0.18671 154 145 115
-0.433414 -0.806257 -0.231828 160 127 107
-0.671129 -1.02024 -0.0862592 77 54 44
-0.495642 -0.850994 0.0368242 116 66 40
-0.307643 -0.836396 -0.337385 134 106 89
-1.39335 -0.484924 -0.527901 164 148 126
-1.32704 -0.262233 -0.335935 161 150 126
-1.30417 -0.389853 -0.250684 50 22 12
-1.26801 -0.39345 -0.230339 40 10 1
-1.26801 -0.39345 -0.230339 40 10 1
-1.06956 -0.287908 -0.222267 94 58 24
-0.813374 -0.352734 -0.449637 126 76 52
-0.894248 -0.495119 -0.183572 94 66 30
-0.893296 -0.51387 -0.182845 158 146 116
-0.796458 -0.655302 -0.533947 76 62 62
-0.788454 -0.65514 -0.539466 132 114 109
-0.652643 -0.67284 -0.439675 92 72 58
-0.595685 -0.759506 -0.120014 56 27 7
-0.723942 -0.816815 0.155081 95 72 32
-0.747406 -0.93524 -0.0474148 156 122 105
-0.745811 -0.933832 -0.0457321 156 122 105
-0.458315 -0.741993 -0.0822623 158 148 124
-0.571952 -0.909484 -0.125965 140 70 46
-0.626988 -0.962243 -0.0878293 131 83 57
-0.687457 -1.03312 -0.0522206 122 90 77
-0.427964 -0.837746 -0.211196 140 111 100
-0.427964 -0.837746 -0.211196 140 111 100
-0.40761 -0.836487 -0.265806 158 128 117
-0.638434 -1.04202 -0.0731822 86 70 66
-0.649285 -0.996185 0.148766 108 61 32
-0.457046 -0.87593 0.0426513 122 82 62
-0.301154 -0.822424 -0.336925 129 100 85
-0.321293 -0.849625 -0.320474 193 166 145
-0.333003 -0.863781 -0.305894 194 164 150
-0.459363 -0.953302 -0.119531 140 100 75
-0.459363 -0.953302 -0.119531 140 100 75
-0.855618 -1.32107 -0.2833 94 70 50
-0.414362 -0.93415 -0.119277 130 70 40
-0.46204 -0.954522 0.0057957 137 97 78
-0.311255 -0.852769 -0.103381 86 68 32
-0.405373 -0.920188 0.0303539 118 76 37
-0.622007 -1.112 -0.0319416 8 8 6
-0.405436 -0.95348 -0.111858 136 88 63
-0.582356 -1.08628 -0.0524386 154 134 126
-0.564929 -1.08287 -0.0590974 155 138 118
-0.584519 -1.09175 -0.00995159 114 73 48
-0.541271 -1.09787 -0.0788734 156 143 104
-0.50405 -1.0815 -0.0164806 46 22 15
-0.496252 -1.07828 0.1233 159 137 110
-0.479675 -1.07653 0.146062 155 148 95
-0.471319 -1.08961 0.120046 146 144 92
-1.29258 -0.382877 -0.693551 24 14 29
-0.813286 -0.658371 -0.43721 140 84 65
-0.392987 -0.867554 -0.170314 114 88 72
-0.392987 -0.867554 -0.170314 114 88 72
-0.363515 -0.872893 -0.28711 129 94 82
-0.350286 -0.881177 -0.285935 150 90 66
-0.452158 -0.969303 -0.106962 174 150 130
-1.43523 -0.443572 -0.581285 182 66 66
-1.27056 -0.304541 -0.771704 138 12 12
-1.30807 -0.392661 -0.551087 134 93 34
-1.21887 -0.315347 -0.6782 158 136 119
-1.0263 -0.272128 -0.169933 97 62 27
-1.02546 -0.405946 -0.141943 80 30 10
-0.424647 -0.92522 0.0309357 34 16 4
-0.318152 -0.875034 -0.0808293 128 82 58
