ply
format ascii 1.0
element vertex 249
property float x
property float y
property float z
property uchar red
property uchar green
property uchar blue
end_header
2.4818 -2.20228 0.411644 0 255 0
2.55154 -2.26951 0.380184 0 255 0
2.55154 -2.26951 0.380184 0 255 0
1.70219 -2.7061 1.62125 0 255 0
1.99895 -2.90397 1.91721 0 255 0
-0.983765 0.565581 6.96181 0 255 0
-0.984021 0.565705 6.96181 0 255 0
-0.98372 0.565627 6.9618 0 255 0
1.7707 8.40127 -14.2417 0 255 0
-26.6003 2.20002 30.589 0 255 0
-4.73891 4.65317 -7.86329 0 255 0
-0 -0 -0 0 255 0
6.06486 3.97629 13.6217 0 255 0
-0.150756 0.554528 0.354773 0 255 0
-0.00741585 9.38004 0.272896 0 255 0
1.01324 -1.16912 1.31632 218 210 168
1.29502 -1.27231 0.907064 118 117 96
1.30648 -1.27779 0.892483 117 118 97
1.44914 -1.3812 0.812561 116 117 90
1.48921 -1.42161 0.761049 154 150 122
1.32766 -1.23369 0.780935 117 118 94
1.21197 -1.1208 0.833556 222 222 176
1.35751 -1.26811 0.755671 156 155 134
-0.875439 0.173155 0.873124 220 218 176
1.41039 -1.32978 0.708 156 153 128
2.29244 -2.08539 0.414505 200 182 152
0.419589 -0.77365 0.60664 180 132 102
0.610537 -0.867279 0.626111 185 152 120
0.627398 -0.922115 0.565656 172 123 94
0.40859 -0.739268 0.618489 152 110 80
0.174675 -0.553115 0.641058 190 158 134
1.38649 -1.29544 0.668887 178 178 150
0.762327 -1.01433 0.467544 148 104 79
-4.33314 2.80795 0.980737 94 60 35
-9.18103 6.32127 1.27336 113 79 51
-5.7731 2.8018 -0.393297 206 200 176
1.27054 -1.18821 0.648686 182 180 156
-0.757753 -0.147398 0.170756 150 104 82
-1.97046 1.2753 0.895623 224 230 188
-3.87303 1.61379 -0.38789 203 198 176
1.60558 -1.59478 0.407399 73 53 30
-1.46098 0.289328 0.0507226 188 149 130
-1.0943 0.0714269 0.0717441 94 51 32
1.15991 -1.08661 0.627441 180 177 156
-1.26377 0.76065 0.762527 226 232 188
1.47679 -1.52831 0.347652 200 162 145
-1.98192 0.557433 -0.18396 52 13 2
0.999329 -0.900316 0.669768 166 166 145
-8.96594 4.53551 -1.87289 100 58 40
-9.61124 4.79793 -2.17453 186 172 146
0.167087 -0.662903 0.138836 85 47 31
0.864346 -0.959417 0.415125 46 25 10
0.309754 -0.216765 0.776604 231 233 189
-0.235326 0.506345 1.13108 120 129 84
-0.0858397 -0.46965 0.0805047 59 22 9
0.438253 -0.817062 0.133377 60 24 14
-0.224139 -0.443268 -0.0861741 130 90 75
-0.444355 -0.269379 -0.0964125 58 22 12
-2.01479 0.586912 -0.605203 166 136 128
-2.19171 0.710964 -0.660716 86 46 36
0.51362 -0.416444 0.614276 168 167 139
-3.02248 3.51022 1.78809 167 176 134
-3.96668 1.72539 -1.26209 88 46 37
0.658002 -0.52978 0.55807 176 174 146
-9.00004 4.66405 -2.97276 74 30 18
-9.13687 4.72627 -3.12856 128 82 68
0.889419 -0.779956 0.462244 144 144 120
-9.12129 4.7849 -3.13822 156 110 96
-3.09864 2.64619 0.427206 52 23 15
0.7968 -0.68822 0.448386 172 173 154
-0.265332 -0.301159 -0.221846 134 92 80
0.711884 -0.887937 0.0758982 58 22 10
0.917696 -0.997249 0.163544 82 36 23
0.421896 -0.695656 -0.019694 67 30 21
0.64054 -0.516087 0.395887 171 174 151
-0.0941797 -0.385618 -0.235105 54 20 14
0.713691 -0.87486 0.0653387 176 154 150
0.713691 -0.87486 0.0653387 176 154 150
0.760088 -0.894756 0.0830265 192 155 136
-0.586943 -0.081017 -0.416913 54 17 12
-0.586943 -0.081017 -0.416913 54 17 12
0.566034 -0.786638 0.00178967 158 142 138
0.853455 -0.9502 0.111331 142 102 80
0.814945 -0.999918 0.00813441 128 94 89
-1.12984 0.26377 -0.624239 81 42 34
-0.0832205 -0.37593 -0.242643 156 134 132
-0.068552 -0.368823 -0.22984 122 76 68
-0.068552 -0.368823 -0.22984 122 76 68
0.518026 -0.734449 -0.0248679 65 32 25
-0.275709 -0.225922 -0.301948 51 21 16
-4.38145 2.18814 -1.94184 70 32 26
0.213937 -0.542319 -0.146069 35 17 14
-5.38716 2.88212 -2.27653 74 36 28
-1.84152 0.692343 -0.961015 168 145 146
-1.84152 0.692343 -0.961015 168 145 146
-0.50378 -0.105571 -0.430284 74 34 24
-3.87846 1.94769 -1.77429 158 140 141
0.889461 -0.92518 0.127522 82 42 32
0.583128 -0.420825 0.346046 158 158 134
-1.55125 1.50138 0.179017 90 92 66
0.356911 -0.59697 -0.129112 160 124 120
1.08149 -0.716752 0.507712 124 132 80
0.643852 -0.748481 -0.0343794 198 156 152
1.56677 -1.3942 0.261791 60 55 30
0.9567 -0.943116 0.0613513 199 166 150
0.989091 -0.942854 0.0705277 86 96 60
-0.212048 1.15572 0.83511 80 92 50
1.21495 -1.02581 0.182046 98 113 68
1.33776 -0.990326 0.346566 178 182 154
0.248193 0.237489 0.369558 70 81 48
0.385673 -0.052469 0.205652 151 155 140
0.106782 0.255687 0.175365 148 148 139
-7.5766 5.0404 -3.91706 149 122 120
-0.532043 1.51524 0.603854 218 225 184
0.972669 -0.775092 0.0544262 24 16 10
-0.0882112 0.821847 0.387157 217 230 188
1.05555 -0.825616 0.0897036 110 91 74
-2.79967 3.33361 -0.319425 39 21 10
0.152292 1.10771 0.89666 129 141 93
0.947494 -0.697884 0.0589516 144 120 100
0.809889 -0.898688 -0.300183 157 128 122
0.754513 -0.627321 -0.118456 136 107 106
-2.44379 3.14032 -0.286653 101 91 70
0.397478 -0.126384 -0.0746273 64 61 46
-3.67873 4.62057 -0.347802 66 29 18
1.37173 -1.1037 0.144493 30 26 11
0.0196432 -0.0561588 -0.47569 148 111 110
-1.24446 1.01321 -1.09874 68 36 35
-1.06459 0.898933 -1.00797 82 48 47
-0.737011 0.684581 -0.850157 68 36 32
-1.48077 1.28391 -1.21765 85 54 53
-3.25931 2.77465 -2.0529 171 126 124
-0.559402 0.620846 -0.74107 82 52 47
-1.23261 1.16377 -1.09414 160 118 116
-2.41462 3.7351 -0.154528 216 232 192
-0.660213 0.671333 -0.84035 90 52 48
0.688729 -0.323245 -0.088108 89 78 60
-0.17487 0.297827 -0.601107 178 150 149
-4.49057 3.97568 -2.63538 120 72 67
-2.89361 2.7615 -1.85391 84 48 44
-3.00944 2.81481 -1.9719 170 130 122
-0.903961 1.77281 -0.249413 98 91 72
0.629826 -0.21351 -0.173051 56 46 26
-2.88667 2.89946 -1.89449 224 215 210
0.633587 -0.117403 -0.0864393 36 20 6
-2.07179 2.23457 -1.50714 120 96 90
-1.83054 2.06041 -1.36045 60 36 30
-2.65234 2.78815 -1.78373 225 214 206
-1.21526 1.52229 -1.09285 148 121 118
-1.27192 1.61969 -1.08139 125 88 84
1.24505 0.0997809 0.829895 224 224 182
-0.25742 1.18402 -0.207301 202 185 172
-1.27058 2.52478 -0.349661 213 226 188
1.2624 0.0778311 0.814775 144 148 110
1.2624 0.0778311 0.814775 144 148 110
-0.544442 1.0091 -0.76571 121 90 86
0.664555 -0.193946 -0.240064 212 194 194
-1.31093 2.48094 -0.583813 156 130 102
-0.846125 1.41577 -0.90224 230 223 214
-0.447224 1.01181 -0.721883 150 123 118
-3.11959 5.77441 -0.370868 221 230 194
-0.12202 1.04036 -0.350688 98 73 53
0.106675 0.861382 -0.233115 219 222 197
-0.541849 1.99833 -0.217356 223 234 192
-0.373765 1.32365 -0.603113 216 172 154
-0.741957 2.41071 -0.206791 114 102 72
-1.15051 2.99284 -0.30948 232 235 197
-2.06448 4.50695 -0.405562 133 116 80
0.0880091 1.26063 -0.12458 150 126 94
-1.37572 3.84356 -0.118165 100 86 38
-0.410063 1.74822 -0.473656 226 230 201
2.31388 -2.0948 0.395348 84 46 28
-9.07453 8.79305 1.37012 202 208 166
-2.44718 3.86065 -0.933976 174 152 134
-1.83192 2.64677 -1.26904 202 198 188
-2.40439 3.26027 -1.57783 204 198 189
-2.67358 3.98885 -1.5971 56 62 33
-0.774085 2.69996 -0.361691 206 210 169
1.42255 -0.858993 -0.134042 209 204 191
2.10959 -1.27918 0.389451 92 90 56
-3.10532 2.28906 -1.15225 145 124 104
-3.05627 3.04787 -0.755751 31 24 14
-0.662091 1.48404 0.118023 99 96 80
-6.46066 5.54479 -3.19666 52 20 18
-2.83865 3.10984 -1.08935 102 80 64
-1.23824 0.574179 2.23737 136 134 113
-1.3136 0.932514 1.86414 184 183 132
-1.44343 0.46919 0.40091 79 56 43
-1.48148 1.22319 1.30876 123 124 102
-1.34176 1.24404 1.22607 195 197 152
-2.66199 1.9116 0.1093 108 109 90
-2.38672 1.06228 -0.042609 94 49 37
-2.52571 1.25095 -0.636584 162 118 102
0.713291 -0.972246 0.0193022 42 10 3
-0.160286 0.321533 0.543529 86 91 46
-9.78684 6.63187 -2.23997 38 14 8
-9.78684 6.63187 -2.23997 38 14 8
2.55153 -2.26951 0.380185 70 78 40
2.55153 -2.26951 0.380185 70 78 40
2.55153 -2.2695 0.380186 202 206 157
2.55153 -2.2695 0.380186 203 206 158
2.55151 -2.26949 0.380179 26 16 6
2.55151 -2.26949 0.380173 56 24 20
2.55153 -2.2695 0.380187 202 204 154
2.55151 -2.26948 0.380173 60 38 30
2.55153 -2.2695 0.380181 236 219 209
2.55153 -2.2695 0.380183 198 202 164
2.55153 -2.2695 0.380183 200 207 166
2.55153 -2.2695 0.380183 86 74 25
2.5515 -2.26944 0.380184 94 92 60
-0.936264 0.777407 0.609126 86 82 49
-1.03105 1.38447 -0.670185 119 79 56
-0.172887 1.45936 -0.327771 129 86 67
0.371493 -1.10789 0.349231 60 25 22
0.424541 -1.16571 0.387699 125 94 95
0.208706 -0.607368 0.140484 42 12 6
0.0839085 -0.133208 -0.0335629 24 6 1
0.020827 0.309582 -0.0459706 45 22 8
0.0136748 0.3915 -0.0689882 47 16 0
-0.0196799 0.572011 -0.264662 120 86 74
-0.234481 1.78358 -0.425981 180 142 134
0.643288 -0.923335 0.178526 164 150 140
0.655671 -0.940228 0.17327 162 152 144
0.712864 -1.03907 0.246028 62 32 18
0.738419 -0.987124 0.203419 76 42 16
-0.450545 1.19991 0.0480674 34 14 7
-4.01192 0.875492 0.269154 48 52 34
-1.48108 2.24228 1.42089 100 110 74
-0.208065 2.81433 1.53544 158 162 110
0.775425 2.17264 0.425966 156 164 116
-0.985763 0.564542 6.95336 62 64 45
-0.984592 0.566066 6.9575 148 145 86
-0.984592 0.566066 6.9575 148 145 86
-0.98395 0.565288 6.96028 140 113 106
-0.983653 0.565588 6.96087 88 44 20
-0.983675 0.565709 6.96131 82 90 66
-0.984928 0.567088 6.95752 42 41 20
-0.984594 0.564954 6.9569 55 16 8
-0.984265 0.566331 6.95746 44 54 20
-0.98363 0.564487 6.95683 126 98 89
-0.98353 0.566118 6.9578 45 52 38
-0.983411 0.565009 6.95714 24 6 2
-0.983413 0.565174 6.95729 29 8 4
-0.983188 0.565927 6.95731 42 46 16
-0.983216 0.565723 6.95767 124 86 70
-0.982985 0.566465 6.95811 82 85 61
-0.982936 0.566458 6.95805 154 160 120
-0.982683 0.566598 6.95831 154 162 110
-1.68011 0.495701 -0.175011 91 72 58
