ply
format ascii 1.0
element vertex 764
property float x
property float y
property float z
property uchar red
property uchar green
property uchar blue
end_header
-0.578716 -0.900158 0.116346 0 255 0
-0.60295 -0.832881 0.168467 0 255 0
-0.608831 -0.943869 0.0351621 0 255 0
-0.729047 -0.664443 0.336434 0 255 0
-0 -0 -0 0 255 0
-0.619447 -0.817854 0.199455 0 255 0
-0.624605 -0.798141 0.218568 0 255 0
-0.640563 -0.831895 0.204544 0 255 0
-0.607433 -0.873233 0.104189 0 255 0
-0.230719 -0.882571 -0.283271 148 98 38
-0.283874 -0.854903 -0.279614 164 144 125
-0.205678 -0.873518 -0.280912 148 118 102
-0.311875 -0.785661 -0.392284 130 122 84
-0.304223 -0.730759 -0.379919 46 16 8
-0.317094 -0.726142 -0.368621 152 144 94
-0.264231 -0.706367 -0.365031 100 66 30
-0.162492 -0.720148 -0.2922 105 54 24
-0.286925 -0.592451 -0.317131 149 138 95
-0.206834 -0.670822 -0.196474 155 128 120
-0.163628 -0.604267 -0.265251 138 106 74
-0.150668 -0.587229 -0.286164 96 72 35
-0.236965 -0.640183 -0.168521 122 72 56
-0.159304 -0.49898 -0.166184 78 56 38
-0.27545 -0.425013 -0.201341 122 85 43
-0.275128 -0.424495 -0.201725 122 85 43
-0.208656 -0.435169 -0.179243 164 150 126
-0.271126 -0.434735 -0.190182 96 48 16
-0.15484 -0.480359 -0.110802 201 178 172
-0.254791 -0.443613 -0.114432 87 75 76
-0.310414 -0.422255 -0.13987 134 88 67
-0.253497 -0.445976 -0.104515 46 16 10
-0.285848 -0.440946 -0.114489 126 28 4
-0.228773 -0.428307 -0.109244 164 129 104
-0.294119 -0.425169 -0.123638 160 134 122
-0.247413 -0.444431 -0.0974724 100 66 60
-0.289183 -0.423451 -0.111968 226 173 146
-0.289183 -0.423451 -0.111968 226 173 146
-0.277873 -0.364539 -0.136263 60 40 30
-0.130618 -0.420049 -0.0535684 120 90 77
-0.264972 -0.411878 -0.0917865 175 140 118
-0.259641 -0.403076 -0.0840917 50 18 0
-0.179494 -0.366642 -0.0764132 164 130 102
-0.175918 -0.370962 -0.0716796 154 142 120
-0.280873 -0.394751 -0.0892432 110 88 48
-0.274006 -0.700602 -0.286269 82 30 14
-0.278933 -0.60446 -0.318316 148 100 85
-0.264388 -0.910793 -0.256853 170 122 73
-0.211556 -0.900413 -0.289952 146 117 104
-0.291238 -0.792376 -0.391086 97 55 28
-0.263827 -0.778505 -0.354004 66 22 12
-0.279398 -0.647462 -0.355941 100 68 30
-0.19282 -0.694586 -0.211249 160 132 121
-0.211735 -0.679454 -0.156006 190 170 161
-0.210434 -0.437865 -0.180616 72 44 18
-0.358846 -0.469436 -0.150507 154 122 108
-0.157075 -0.482126 -0.0731161 122 73 66
-0.350705 -0.453527 -0.113145 127 100 89
-0.375029 -0.448894 -0.111677 239 224 212
-0.550599 -0.83681 0.0859726 128 72 63
-0.269526 -0.407919 -0.0881454 178 150 129
-0.269526 -0.407919 -0.0881454 178 150 129
-0.234298 -0.0933858 -0.247765 142 115 80
-0.232361 -0.88959 -0.28658 122 62 16
-0.277068 -0.595667 -0.304599 66 36 12
-0.0982154 -0.612164 -0.228458 142 124 117
-0.15846 -0.505784 -0.144911 101 26 28
-0.180828 -0.503577 -0.150227 139 64 40
-0.180465 -0.460012 -0.174899 110 66 42
-0.210873 -0.466382 -0.165395 110 90 74
-0.156133 -0.48718 -0.0822306 116 64 58
-0.291487 -0.445265 -0.121339 168 77 52
-0.277801 -0.290619 -0.176134 138 108 96
-0.172593 -0.436747 -0.0528792 174 122 105
-0.367122 -0.4256 -0.103496 138 111 98
-0.18047 -0.638706 -0.124021 158 31 30
-0.18047 -0.638706 -0.124021 158 31 30
-0.207061 -0.415948 -0.1839 88 68 40
-0.161567 -0.483635 -0.0749209 194 144 110
-0.161567 -0.483635 -0.0749209 194 144 110
-0.186301 -0.406706 -0.0703889 58 32 8
-0.18078 -0.394197 -0.0726572 38 14 2
-0.28173 -0.744098 -0.299225 90 31 14
-0.28173 -0.744098 -0.299225 90 31 14
-0.312578 -0.611833 -0.335235 32 8 2
-0.192655 -0.471845 -0.169518 141 104 80
-0.182094 -0.493283 -0.10491 150 111 97
-0.186677 -0.485845 -0.0821737 172 150 144
-0.258902 -0.884201 -0.300554 22 12 24
-0.271531 -0.882074 -0.280777 96 84 90
-0.211898 -0.903005 -0.285164 96 20 14
-0.225656 -0.897844 -0.274072 150 120 106
-0.305176 -0.857931 -0.304264 84 24 10
-0.315786 -0.853938 -0.297907 162 147 127
-0.224001 -0.892248 -0.285709 98 10 6
-0.244297 -0.879819 -0.279765 108 17 7
-0.212563 -0.873373 -0.284306 152 130 116
-0.233769 -0.822537 -0.340462 157 139 118
-0.292267 -0.786449 -0.393086 30 8 4
-0.17089 -0.823768 -0.351841 104 63 28
-0.254559 -0.77875 -0.371962 106 67 54
-0.264718 -0.775804 -0.358782 138 96 77
-0.268495 -0.776838 -0.340162 136 94 74
-0.244358 -0.787159 -0.324136 168 122 98
-0.342133 -0.733833 -0.379498 164 110 87
-0.228749 -0.773971 -0.343866 192 148 128
-0.32579 -0.71438 -0.409939 157 145 98
-0.283524 -0.752702 -0.334017 126 81 56
-0.233126 -0.759999 -0.345194 169 120 97
-0.276665 -0.740905 -0.35167 82 38 20
-0.261511 -0.701764 -0.382794 82 38 15
-0.262995 -0.732773 -0.30045 150 103 93
-0.272274 -0.72921 -0.291877 56 14 4
-0.249072 -0.679477 -0.394945 90 57 23
-0.228649 -0.661632 -0.430399 156 144 121
-0.280749 -0.700406 -0.309955 152 104 82
-0.284836 -0.702717 -0.303358 152 104 82
-0.238165 -0.667531 -0.403538 80 46 16
-0.201728 -0.691468 -0.358431 150 132 108
-0.247883 -0.668503 -0.376102 60 20 5
-0.245626 -0.653976 -0.395319 94 58 26
-0.27568 -0.689751 -0.29333 77 30 12
-0.277774 -0.687172 -0.298351 126 79 55
-0.27055 -0.666999 -0.332057 167 117 85
-0.310495 -0.632961 -0.380119 45 20 6
-0.26814 -0.682409 -0.291424 152 100 86
-0.272512 -0.662388 -0.321019 110 65 37
-0.278417 -0.659251 -0.320093 132 82 54
-0.278417 -0.659251 -0.320093 132 82 54
-0.169704 -0.693932 -0.28198 132 78 56
-0.155807 -0.678766 -0.293521 201 154 130
-0.246601 -0.618524 -0.305288 26 8 1
-0.203651 -0.685121 -0.198812 156 128 118
-0.200112 -0.680739 -0.193835 92 68 58
-0.27368 -0.596549 -0.305164 142 122 96
-0.22092 -0.652016 -0.211499 136 30 20
-0.252534 -0.66887 -0.162835 20 12 10
-0.200183 -0.648005 -0.169257 87 80 65
-0.221653 -0.659481 -0.139845 44 31 16
-0.226715 -0.661738 -0.135649 44 31 16
-0.233579 -0.654747 -0.13207 56 40 28
-0.208763 -0.64703 -0.122575 175 160 158
-0.219596 -0.618699 -0.137643 154 136 121
-0.218518 -0.615382 -0.140253 153 137 118
-0.219048 -0.612839 -0.135395 152 136 118
-0.176715 -0.599867 -0.153671 78 64 53
-0.188903 -0.533685 -0.222855 156 145 123
-0.195513 -0.601504 -0.13623 150 132 118
-0.192164 -0.606415 -0.130051 147 129 116
-0.197994 -0.605166 -0.130344 101 80 71
-0.200658 -0.606619 -0.128307 101 80 71
-0.195045 -0.598426 -0.135509 96 76 61
-0.054356 -0.296183 -0.450283 92 92 52
-0.153836 -0.486669 -0.185891 122 100 78
-0.215848 -0.466569 -0.202582 155 146 125
-0.21021 -0.473958 -0.181424 43 14 6
-0.217489 -0.480116 -0.174221 43 14 6
-0.354109 -0.455689 -0.206792 158 126 102
-0.340371 -0.45798 -0.202457 96 90 69
-0.328259 -0.45717 -0.200991 102 81 46
-0.327489 -0.45579 -0.202485 102 81 46
-0.229959 -0.460051 -0.190045 158 140 118
-0.326376 -0.458606 -0.19661 166 139 116
-0.212255 -0.47205 -0.174149 50 29 12
-0.212255 -0.47205 -0.174149 50 29 12
-0.217315 -0.469964 -0.174754 98 71 42
-0.200437 -0.465007 -0.178477 112 92 56
-0.326866 -0.462598 -0.190326 98 70 34
-0.362575 -0.435079 -0.221152 154 138 118
-0.242025 -0.459408 -0.186927 94 66 40
-0.199096 -0.461072 -0.181576 116 94 64
-0.335245 -0.463702 -0.188637 160 134 116
-0.343699 -0.464987 -0.187212 101 90 70
-0.274045 -0.460568 -0.186487 158 130 96
-0.270297 -0.469498 -0.175005 198 166 148
-0.360471 -0.464176 -0.187624 152 128 108
-0.266962 -0.467067 -0.172625 156 128 115
-0.267403 -0.463787 -0.1758 52 30 22
-0.370552 -0.465866 -0.181444 106 66 34
-0.206812 -0.4633 -0.167292 84 66 48
-0.340694 -0.466613 -0.175813 84 68 59
-0.262534 -0.459776 -0.175488 106 69 50
-0.270374 -0.448361 -0.182497 98 24 9
-0.331164 -0.470361 -0.166562 102 64 26
-0.271515 -0.441408 -0.189595 145 140 91
-0.263974 -0.454815 -0.173454 164 128 108
-0.249568 -0.453465 -0.170209 160 122 102
-0.266906 -0.448831 -0.175718 100 32 11
-0.333331 -0.468554 -0.162424 151 116 94
-0.186362 -0.4228 -0.18911 120 106 74
-0.240875 -0.449594 -0.167796 106 71 48
-0.182802 -0.435119 -0.170838 69 42 17
-0.240732 -0.435251 -0.171512 75 92 77
-0.197568 -0.472198 -0.130233 145 118 106
-0.204156 -0.41724 -0.176567 42 22 8
-0.266127 -0.41449 -0.186275 152 150 99
-0.233147 -0.416259 -0.180508 65 50 24
-0.19292 -0.490926 -0.103067 114 65 43
-0.26858 -0.422661 -0.172094 152 150 97
-0.187538 -0.487815 -0.10104 198 174 170
-0.155283 -0.494621 -0.0856271 178 150 144
-0.222984 -0.467692 -0.118662 69 28 12
-0.269579 -0.424097 -0.157716 76 76 47
-0.269579 -0.424078 -0.157708 76 76 47
-0.265674 -0.427427 -0.15208 88 76 58
-0.2797 -0.423086 -0.157352 77 85 64
-0.38469 -0.400063 -0.190341 152 148 92
-0.217447 -0.456926 -0.114126 116 85 70
-0.284367 -0.424726 -0.149492 156 130 116
-0.28252 -0.43754 -0.137534 82 82 66
-0.256128 -0.453134 -0.117941 123 86 68
-0.289693 -0.435702 -0.138299 90 88 70
-0.193195 -0.477932 -0.0854789 202 162 144
-0.223503 -0.455951 -0.105671 182 156 136
-0.224026 -0.45647 -0.105273 182 156 136
-0.251243 -0.458827 -0.10628 67 24 9
-0.202952 -0.48159 -0.0791185 111 63 37
-0.28679 -0.421139 -0.144591 166 136 126
-0.28632 -0.446844 -0.118496 142 48 24
-0.194026 -0.475294 -0.0781746 116 71 46
-0.293902 -0.444131 -0.11995 127 17 7
-0.25285 -0.455981 -0.102884 62 25 12
-0.212955 -0.450188 -0.0997637 20 19 16
-0.211432 -0.456711 -0.090263 174 144 130
-0.196862 -0.472058 -0.0741652 176 130 110
-0.264696 -0.439036 -0.11321 19 17 21
-0.287137 -0.442411 -0.11343 116 22 0
-0.345422 -0.453636 -0.113008 64 40 30
-0.34717 -0.455952 -0.111208 64 40 30
-0.390179 -0.389315 -0.175071 152 146 95
-0.364527 -0.425173 -0.135098 174 132 110
-0.353688 -0.45304 -0.110397 170 144 137
-0.398025 -0.391465 -0.169553 152 144 104
-0.228534 -0.437153 -0.100645 166 113 92
-0.20689 -0.445295 -0.0887644 114 101 84
-0.28948 -0.439494 -0.107393 82 21 4
-0.273922 -0.434471 -0.108399 22 11 12
-0.284978 -0.437824 -0.107337 76 20 6
-0.347876 -0.450926 -0.105159 96 74 64
-0.298868 -0.400223 -0.140273 129 82 56
-0.360283 -0.450217 -0.106508 82 59 50
-0.240338 -0.441234 -0.0928459 72 27 11
-0.267084 -0.437325 -0.100062 32 16 9
-0.270702 -0.436354 -0.101246 38 16 7
-0.243169 -0.438303 -0.0944828 191 125 96
-0.346377 -0.446741 -0.104709 157 137 130
-0.287845 -0.415974 -0.118837 94 46 26
-0.340912 -0.443589 -0.104432 157 136 127
-0.402141 -0.377945 -0.16877 154 100 72
-0.365191 -0.445755 -0.104139 93 75 70
-0.254746 -0.435171 -0.0922226 56 25 19
-0.290903 -0.424222 -0.107355 166 113 94
-0.244856 -0.421477 -0.0979114 67 26 14
-0.220156 -0.41713 -0.0944999 39 14 4
-0.267653 -0.403619 -0.113632 12 6 6
-0.275612 -0.361127 -0.146454 53 14 3
-0.356623 -0.447895 -0.0926855 186 169 166
-0.374494 -0.439854 -0.100686 230 213 209
-0.403076 -0.374601 -0.158345 112 80 44
-0.363139 -0.430786 -0.105786 194 178 175
-0.271861 -0.40735 -0.104381 158 86 59
-0.353908 -0.436973 -0.0966583 193 176 172
-0.301585 -0.394565 -0.117446 22 10 2
-0.258369 -0.327117 -0.158294 158 115 98
-0.274254 -0.361517 -0.136622 20 8 6
-0.221144 -0.41578 -0.0834546 184 156 134
-0.247772 -0.418418 -0.086132 54 20 4
-0.246363 -0.416778 -0.0864875 58 26 8
-0.350036 -0.438725 -0.0895245 178 159 154
-0.396545 -0.459831 -0.0808569 146 106 86
-0.311363 -0.390993 -0.115881 175 155 149
-0.258409 -0.407935 -0.0913587 106 62 43
-0.271362 -0.357532 -0.133008 17 9 5
-0.274486 -0.408838 -0.0910913 176 142 120
-0.162702 -0.430767 -0.0505849 98 70 58
-0.162702 -0.430767 -0.0505849 98 70 58
-0.236864 -0.385184 -0.0992931 140 72 46
-0.152417 -0.420384 -0.0503474 190 166 152
-0.277118 -0.352914 -0.127188 153 146 98
-0.278868 -0.406449 -0.0868052 178 150 129
-0.153376 -0.418347 -0.0507031 38 22 10
-0.219361 -0.365224 -0.105034 142 79 55
-0.211209 -0.363953 -0.103497 125 84 64
-0.349392 -0.425531 -0.0855271 132 18 18
-0.258222 -0.400003 -0.0832009 176 149 126
-0.265511 -0.404361 -0.0809797 56 30 10
-0.167795 -0.413032 -0.0518074 138 80 53
-0.384694 -0.429413 -0.0807307 93 70 51
-0.176909 -0.391866 -0.0609124 112 80 52
-0.33705 -0.410939 -0.0812661 165 146 138
-0.345594 -0.408953 -0.0823775 92 106 88
-0.338092 -0.402646 -0.0838019 91 94 78
-0.359538 -0.411589 -0.081029 121 78 55
-0.360875 -0.413843 -0.0794934 121 78 55
-0.354652 -0.409691 -0.0805676 154 136 125
-0.344549 -0.405459 -0.0798647 158 141 124
-0.344549 -0.405459 -0.0798647 158 141 124
-0.330187 -0.399008 -0.0789892 102 66 42
-0.363583 -0.410367 -0.0784891 164 122 98
-0.340308 -0.398151 -0.0810254 100 100 86
-0.361739 -0.407211 -0.0784565 112 67 42
-0.355632 -0.405644 -0.0779586 155 136 129
-0.350404 -0.400541 -0.0788194 115 102 88
-0.361755 -0.406325 -0.077181 166 122 102
-0.335549 -0.393815 -0.0782344 118 88 65
-0.36086 -0.401534 -0.0775208 100 56 31
-0.334085 -0.392675 -0.0760569 154 134 112
-0.327068 -0.383261 -0.0795261 82 54 21
-0.327192 -0.383534 -0.0794329 82 54 21
-0.362263 -0.399131 -0.0750169 120 78 50
-0.327873 -0.375778 -0.0827733 150 132 112
-0.327873 -0.375778 -0.0827733 150 132 112
-0.343161 -0.390015 -0.0743418 96 30 22
-0.337157 -0.384168 -0.0770197 137 94 81
-0.356763 -0.321434 -0.123817 162 137 115
-0.362067 -0.391116 -0.0757869 152 136 124
-0.340023 -0.373429 -0.0802523 167 128 95
-0.356214 -0.315902 -0.123102 99 64 26
-0.338578 -0.372377 -0.0779119 86 60 22
-0.340569 -0.3661 -0.0812389 108 78 44
-0.35623 -0.340029 -0.101352 154 129 106
-0.357749 -0.3429 -0.0997739 154 129 106
-0.349711 -0.363877 -0.0832034 108 100 68
-0.357197 -0.335763 -0.103364 101 70 33
-0.355806 -0.32642 -0.107305 98 62 28
-0.355806 -0.32642 -0.107305 98 62 28
-0.354965 -0.34353 -0.0954331 104 72 37
-0.230975 -0.899715 -0.277076 104 12 12
-0.302565 -0.872399 -0.261872 130 110 114
-0.248355 -0.864807 -0.288012 114 26 22
-0.237074 -0.881735 -0.210635 120 14 20
-0.288625 -0.829766 -0.291937 154 106 48
-0.344364 -0.770932 -0.384005 35 12 9
-0.351301 -0.742975 -0.37868 37 16 7
-0.255034 -0.779072 -0.360418 67 28 12
-0.278393 -0.70681 -0.38681 90 51 20
-0.305671 -0.668231 -0.40753 150 146 90
-0.245178 -0.697195 -0.332286 88 37 24
-0.271111 -0.708736 -0.28541 65 13 3
-0.210858 -0.688239 -0.348927 72 32 14
-0.242176 -0.645297 -0.309195 101 59 43
-0.299844 -0.615114 -0.332819 26 8 4
-0.152681 -0.676183 -0.270048 125 74 51
-0.20225 -0.688012 -0.196115 89 63 52
-0.212153 -0.690704 -0.169172 156 129 116
-0.240237 -0.670366 -0.164612 39 4 1
-0.152473 -0.678947 -0.167269 67 33 24
-0.192904 -0.649461 -0.123233 66 25 18
-0.197187 -0.612847 -0.136119 113 102 96
-0.32644 -0.458682 -0.196559 168 144 120
-0.242069 -0.459423 -0.186912 100 72 46
-0.263389 -0.460297 -0.174789 102 65 46
-0.274129 -0.460908 -0.174866 156 125 95
-0.206377 -0.46354 -0.165712 26 14 8
-0.365681 -0.47027 -0.161162 100 60 26
-0.202277 -0.428901 -0.185526 158 150 126
-0.341792 -0.47303 -0.155658 108 72 49
-0.262237 -0.436952 -0.177704 124 36 23
-0.262237 -0.436952 -0.177704 124 36 23
-0.370351 -0.451019 -0.156387 124 8 8
-0.156248 -0.48978 -0.0729456 178 157 151
-0.360329 -0.462218 -0.123606 170 144 137
-0.19299 -0.457578 -0.101932 126 82 62
-0.226046 -0.459291 -0.100331 185 160 144
-0.227261 -0.451167 -0.107733 122 94 81
-0.34756 -0.457492 -0.116369 116 91 80
-0.330374 -0.450997 -0.118072 134 86 62
-0.342879 -0.455474 -0.109955 158 137 130
-0.230702 -0.439691 -0.102219 102 60 38
-0.374127 -0.45781 -0.110708 166 140 135
-0.396123 -0.381766 -0.172103 101 46 21
-0.377602 -0.451131 -0.107226 119 98 94
-0.39035 -0.383755 -0.157542 160 109 84
-0.254774 -0.429239 -0.0942084 52 12 4
-0.366847 -0.436297 -0.108634 62 46 41
-0.375434 -0.445086 -0.102502 82 60 52
-0.376655 -0.420016 -0.121877 11 12 12
-0.357034 -0.440535 -0.101559 69 55 47
-0.182905 -0.450845 -0.0602889 142 110 100
-0.425571 -0.609337 0.0234339 124 83 54
-0.135783 -0.439241 -0.0542102 150 116 104
-0.378531 -0.436678 -0.0983545 122 79 54
-0.162584 -0.408126 -0.0689378 212 195 191
-0.343503 -0.405455 -0.106899 176 153 147
-0.381855 -0.426074 -0.0863638 102 76 56
-0.335746 -0.394255 -0.0779993 122 90 69
-0.335746 -0.394255 -0.0779993 122 90 69
-0.352225 -0.397192 -0.0772477 159 137 132
-0.356342 -0.316832 -0.11558 154 148 96
-0.274278 -0.880186 -0.28041 26 15 29
-0.195577 -0.893214 -0.257672 126 14 16
-0.229116 -0.777747 -0.390934 166 138 110
-0.282154 -0.75253 -0.338449 96 53 28
-0.271982 -0.731691 -0.288689 135 94 80
-0.253467 -0.671001 -0.366887 62 22 7
-0.230781 -0.637533 -0.418565 115 74 46
-0.323816 -0.638479 -0.354394 64 18 2
-0.130021 -0.722291 -0.246403 164 140 130
-0.130021 -0.722291 -0.246403 164 140 130
-0.336054 -0.623046 -0.355014 90 58 41
-0.156264 -0.688666 -0.289743 195 144 120
-0.161801 -0.69715 -0.270341 226 174 135
-0.247272 -0.618841 -0.304669 29 8 1
-0.220901 -0.689507 -0.172278 128 104 96
-0.242952 -0.690295 -0.159772 154 126 114
-0.148219 -0.681007 -0.185759 143 106 98
-0.219808 -0.581371 -0.328931 157 146 123
-0.227871 -0.660671 -0.142475 90 86 71
-0.188075 -0.603571 -0.129448 106 86 77
-0.192303 -0.602142 -0.128761 146 128 122
-0.199099 -0.599301 -0.13003 104 88 76
-0.176899 -0.459052 -0.208403 150 138 118
-0.201041 -0.500721 -0.159344 94 64 32
-0.358325 -0.425648 -0.240344 145 138 90
-0.330347 -0.450084 -0.208406 100 90 64
-0.180458 -0.466777 -0.179095 142 114 95
-0.242007 -0.462842 -0.186969 160 137 114
-0.325764 -0.461361 -0.191593 98 69 31
-0.265156 -0.470745 -0.175957 170 138 123
-0.273725 -0.463171 -0.183779 90 52 23
-0.254691 -0.42112 -0.213732 145 142 92
-0.230433 -0.458115 -0.171822 154 126 108
-0.277359 -0.460056 -0.173875 172 132 108
-0.195724 -0.442419 -0.172895 94 74 42
-0.236865 -0.44456 -0.169023 102 80 64
-0.179556 -0.432746 -0.172933 68 41 14
-0.335553 -0.475412 -0.146542 100 58 26
-0.236491 -0.423267 -0.18505 18 26 14
-0.236491 -0.423267 -0.18505 18 26 14
-0.335926 -0.470781 -0.133599 138 94 72
-0.243219 -0.430398 -0.149514 161 130 117
-0.183058 -0.433764 -0.133732 184 160 150
-0.280018 -0.434319 -0.140213 82 82 66
-0.17288 -0.488644 -0.0709656 194 143 107
-0.2993 -0.442679 -0.12421 109 28 17
-0.221705 -0.452644 -0.101752 42 28 20
-0.388039 -0.392524 -0.174094 155 132 102
-0.359035 -0.453006 -0.107089 174 148 142
-0.22705 -0.437294 -0.0966883 132 86 66
-0.360466 -0.450352 -0.106447 86 63 54
-0.40714 -0.384388 -0.165842 210 159 134
-0.368777 -0.449183 -0.10525 94 71 64
-0.353597 -0.449882 -0.102051 85 67 60
-0.385554 -0.389726 -0.156073 126 80 48
-0.366536 -0.448195 -0.103341 81 62 55
-0.364731 -0.444924 -0.104724 95 78 71
-0.374269 -0.44047 -0.104657 198 174 166
-0.249447 -0.349759 -0.131595 92 76 72
-0.263552 -0.410743 -0.0840214 126 70 44
-0.172392 -0.386559 -0.0798177 60 32 10
-0.379634 -0.432885 -0.0875326 152 108 85
-0.329613 -0.402905 -0.0795298 108 74 52
-0.334831 -0.397957 -0.0779253 176 152 140
-0.361729 -0.380473 -0.081293 110 78 48
-0.366635 -0.382423 -0.076451 106 66 36
-0.30389 -0.855074 -0.30044 66 10 0
-0.295503 -0.789847 -0.390896 170 144 128
-0.333143 -0.747722 -0.370777 147 88 73
-0.28815 -0.757377 -0.329838 90 47 22
-0.277496 -0.695552 -0.288336 106 58 44
-0.202757 -0.682008 -0.194053 158 134 121
-0.202826 -0.679971 -0.192659 158 134 122
-0.219882 -0.676041 -0.146807 60 45 40
-0.388121 -0.695965 -0.0735582 150 141 118
-0.341557 -0.448413 -0.212183 99 92 70
-0.210874 -0.459037 -0.132139 162 124 107
-0.278823 -0.41887 -0.162348 80 78 51
-0.220993 -0.438058 -0.0892097 118 94 76
-0.364656 -0.438806 -0.104903 171 153 148
-0.239163 -0.402064 -0.090876 157 142 119
-0.278992 -0.401623 -0.0926652 140 102 64
-0.275426 -0.813746 -0.331888 167 136 116
-0.282565 -0.883864 -0.285819 24 20 30
-0.276685 -0.700278 -0.285618 178 126 110
-0.212251 -0.924084 -0.297407 157 122 107
-0.244764 -0.910825 -0.273243 169 113 44
-0.233357 -0.912843 -0.278437 162 107 36
-0.21279 -0.919061 -0.294977 148 16 18
-0.197948 -0.923146 -0.313508 148 16 18
-0.203766 -0.920725 -0.283185 136 16 14
-0.296852 -0.879853 -0.273719 20 12 20
-0.213137 -0.906905 -0.294015 110 9 9
-0.213137 -0.906905 -0.294015 110 9 9
-0.281094 -0.880745 -0.276944 20 16 28
-0.268696 -0.880046 -0.310016 32 20 30
-0.25607 -0.883651 -0.309019 22 17 30
-0.31842 -0.853591 -0.29375 162 148 130
-0.25043 -0.876221 -0.276954 55 2 2
-0.323461 -0.830062 -0.329756 162 147 126
-0.285859 -0.819435 -0.298498 132 14 16
-0.330117 -0.78345 -0.370469 78 45 26
-0.17231 -0.819568 -0.381663 100 64 32
-0.271586 -0.749329 -0.312995 174 112 90
-0.319332 -0.707957 -0.382203 149 143 91
-0.18477 -0.767394 -0.301215 196 142 108
-0.274628 -0.729708 -0.288558 56 14 4
-0.201488 -0.696782 -0.365086 61 26 15
-0.278637 -0.69324 -0.288337 146 99 78
-0.172462 -0.694637 -0.278935 134 80 56
-0.207826 -0.692439 -0.187844 84 56 48
-0.207164 -0.686643 -0.182738 92 66 56
-0.241702 -0.690165 -0.158437 150 126 118
-0.275646 -0.569653 -0.353378 145 142 89
-0.280498 -0.58998 -0.312913 92 66 32
-0.195115 -0.69289 -0.151297 149 28 28
-0.172534 -0.626697 -0.273903 174 131 114
-0.220669 -0.679958 -0.145939 102 87 80
-0.220337 -0.656677 -0.128856 144 125 118
-0.231471 -0.651711 -0.132043 94 82 66
-0.227009 -0.655488 -0.119034 82 64 57
-0.214776 -0.645972 -0.124244 98 77 72
-0.22649 -0.611788 -0.163074 138 31 22
-0.200593 -0.623922 -0.134819 77 26 18
-0.186043 -0.633182 -0.119883 149 128 121
-0.20146 -0.617111 -0.130074 88 74 64
-0.202832 -0.607096 -0.128881 83 66 56
-0.354974 -0.456824 -0.205452 150 122 92
-0.357188 -0.441358 -0.21966 102 66 30
-0.359561 -0.444286 -0.211255 150 132 110
-0.271584 -0.47104 -0.176384 170 138 118
-0.202598 -0.465108 -0.170204 128 97 78
-0.340613 -0.466551 -0.175933 86 68 59
-0.224769 -0.452723 -0.17703 152 122 102
-0.268152 -0.456454 -0.174392 164 127 109
-0.268434 -0.454048 -0.174499 110 59 32
-0.352515 -0.416128 -0.220148 118 96 80
-0.255099 -0.453644 -0.170136 160 122 104
-0.29262 -0.434599 -0.190514 144 140 90
-0.253677 -0.453058 -0.168016 110 64 39
-0.21428 -0.432418 -0.183671 33 12 2
-0.1797 -0.409773 -0.202727 89 70 37
-0.368559 -0.468805 -0.151386 128 80 58
-0.370704 -0.467445 -0.149022 102 7 4
-0.342363 -0.472126 -0.141598 155 128 115
-0.142456 -0.471503 -0.119423 246 226 220
-0.189396 -0.486218 -0.108254 188 140 120
-0.199504 -0.484629 -0.109848 94 52 26
-0.197339 -0.482795 -0.111714 94 52 26
-0.253867 -0.41495 -0.184938 144 142 88
-0.177879 -0.500121 -0.089008 195 164 158
-0.219392 -0.464005 -0.128935 180 111 82
-0.233662 -0.408047 -0.187678 90 51 16
-0.238164 -0.403404 -0.191292 94 68 24
-0.216574 -0.467961 -0.118047 164 134 118
-0.209019 -0.455369 -0.124943 42 19 8
-0.156381 -0.493874 -0.0782381 174 150 145
-0.159181 -0.49568 -0.0764991 174 150 145
-0.170309 -0.491744 -0.0808123 138 24 21
-0.189866 -0.47372 -0.0893105 112 64 38
-0.288675 -0.438707 -0.134338 156 127 112
-0.273991 -0.446215 -0.120861 23 16 14
-0.273991 -0.446215 -0.120861 23 16 14
-0.191614 -0.480166 -0.0777564 178 152 146
-0.293822 -0.442868 -0.126251 126 12 8
-0.268489 -0.447193 -0.116439 18 10 10
-0.27296 -0.448503 -0.114398 118 108 108
-0.200873 -0.471936 -0.0766195 96 50 26
-0.1978 -0.472757 -0.0735297 190 147 127
-0.210534 -0.441554 -0.0994435 77 36 13
-0.358284 -0.450502 -0.111115 95 70 60
-0.354836 -0.452522 -0.108401 62 40 29
-0.354836 -0.452522 -0.108401 62 40 29
-0.357679 -0.450955 -0.108907 198 173 162
-0.396185 -0.388017 -0.172772 153 145 103
-0.394525 -0.391891 -0.16678 106 59 26
-0.356717 -0.451589 -0.102424 178 158 152
-0.370941 -0.448976 -0.106157 68 48 41
-0.285162 -0.428413 -0.110595 90 33 14
-0.341734 -0.444625 -0.103446 156 136 128
-0.359395 -0.453172 -0.0960027 152 135 130
-0.359395 -0.453172 -0.0960027 152 135 130
-0.392376 -0.38746 -0.161022 117 64 34
-0.357513 -0.445875 -0.10178 67 53 46
-0.358105 -0.441636 -0.103188 158 140 133
-0.366982 -0.444331 -0.100692 177 160 153
-0.345248 -0.437832 -0.102904 76 62 57
-0.355739 -0.43892 -0.102963 64 50 42
-0.355774 -0.442462 -0.0979023 75 59 54
-0.165758 -0.464962 -0.0475578 128 99 86
-0.256329 -0.427189 -0.0947 159 94 68
-0.27307 -0.365005 -0.150429 59 23 5
-0.395957 -0.372958 -0.161386 98 64 26
-0.388502 -0.381739 -0.151322 18 8 3
-0.354712 -0.439344 -0.092685 95 76 70
-0.253581 -0.415658 -0.094454 177 146 127
-0.267839 -0.4183 -0.0925683 144 76 40
-0.276135 -0.406542 -0.102794 24 4 2
-0.276135 -0.406542 -0.102794 24 4 2
-0.215213 -0.417238 -0.0815669 184 155 136
-0.247596 -0.41823 -0.0862754 54 18 2
-0.274777 -0.403388 -0.101977 154 96 73
-0.277419 -0.400975 -0.10197 75 50 42
-0.2058 -0.384051 -0.101741 32 27 22
-0.27353 -0.356853 -0.136817 19 7 2
-0.277407 -0.358964 -0.135533 12 10 8
-0.165378 -0.438182 -0.0467185 167 138 116
-0.277482 -0.398355 -0.100635 163 126 104
-0.35057 -0.427221 -0.0842244 128 23 19
-0.274094 -0.407715 -0.0844468 48 34 22
-0.180911 -0.380698 -0.0712132 103 63 29
-0.36464 -0.414267 -0.0779058 168 123 102
-0.339802 -0.405044 -0.075971 152 134 124
-0.336332 -0.40057 -0.0761842 191 166 153
-0.362919 -0.402003 -0.0766942 106 62 35
-0.370198 -0.364873 -0.103643 138 112 91
-0.335617 -0.377141 -0.0787421 56 28 18
-0.358732 -0.366424 -0.0904026 104 64 32
-0.353985 -0.317931 -0.121862 94 62 24
-0.353985 -0.317931 -0.121862 94 62 24
-0.354632 -0.312803 -0.125256 96 62 24
-0.361515 -0.358515 -0.0910363 102 66 30
-0.352524 -0.319777 -0.118495 158 138 113
-0.360292 -0.367707 -0.0817183 156 140 116
-0.351127 -0.353666 -0.0872437 111 82 58
-0.312256 -0.905512 -0.303763 120 22 13
-0.336287 -0.895313 -0.290363 143 43 29
-0.366545 -0.877795 -0.293863 161 144 124
-0.307475 -0.904769 -0.272608 102 3 5
-0.260256 -0.908213 -0.279348 60 36 45
-0.344524 -0.860118 -0.292606 116 14 12
-0.215221 -0.873268 -0.265138 114 20 18
-0.24405 -0.846414 -0.315534 160 140 124
-0.284609 -0.785599 -0.345761 95 44 31
-0.336171 -0.738097 -0.369137 112 56 35
-0.267636 -0.710223 -0.287748 178 121 103
-0.248286 -0.659976 -0.37345 80 31 7
-0.201036 -0.677919 -0.29981 166 113 93
-0.22114 -0.602158 -0.330801 170 150 126
-0.211594 -0.658924 -0.228293 111 64 46
-0.199567 -0.669389 -0.201905 153 119 108
-0.147224 -0.681437 -0.175394 68 30 24
-0.360735 -0.694339 -0.060696 73 40 16
-0.334167 -0.652042 -0.133498 144 136 114
-0.334167 -0.652042 -0.133498 144 136 114
-0.148275 -0.587132 -0.278357 90 66 30
-0.207021 -0.614728 -0.136584 150 131 116
-0.349741 -0.444793 -0.222409 94 68 26
-0.232479 -0.525138 -0.12138 92 57 29
-0.355845 -0.429666 -0.235032 104 66 28
-0.199979 -0.465722 -0.178866 113 89 56
-0.250196 -0.4645 -0.181729 154 124 108
-0.348927 -0.468334 -0.179042 156 132 118
-0.338554 -0.470432 -0.156029 179 145 130
-0.310896 -0.447342 -0.170082 156 140 104
-0.136866 -0.492674 -0.104089 212 188 182
-0.138629 -0.46838 -0.123918 251 236 230
-0.27606 -0.404932 -0.198552 158 146 107
-0.202185 -0.398885 -0.192489 94 78 49
-0.239126 -0.417962 -0.174056 128 122 78
-0.253404 -0.465357 -0.124219 189 120 81
-0.249356 -0.462673 -0.126319 206 143 107
-0.332077 -0.466574 -0.126981 164 148 105
-0.260357 -0.418383 -0.163679 148 140 100
-0.270495 -0.424974 -0.154369 78 84 65
-0.248858 -0.456647 -0.120093 132 76 51
-0.375058 -0.458074 -0.129887 192 152 130
-0.267962 -0.48625 -0.0830915 184 157 138
-0.351642 -0.44632 -0.115806 102 75 67
-0.375086 -0.451403 -0.111174 120 84 70
-0.372031 -0.445307 -0.109596 86 65 57
-0.349823 -0.446421 -0.103149 89 71 63
-0.366584 -0.445331 -0.106021 126 106 100
-0.290427 -0.417172 -0.120175 169 142 132
-0.266173 -0.3661 -0.152633 66 26 11
-0.276041 -0.373471 -0.146629 162 144 112
-0.376893 -0.436945 -0.105392 138 102 84
-0.360244 -0.441602 -0.0968922 192 173 170
-0.263036 -0.410743 -0.107249 144 77 44
-0.179402 -0.448451 -0.0572466 140 105 90
-0.354531 -0.439028 -0.092963 111 92 86
-0.375302 -0.437759 -0.0970247 118 94 86
-0.279132 -0.38002 -0.126383 78 26 13
-0.323627 -0.435729 -0.085455 78 26 13
-0.21568 -0.3889 -0.102299 151 130 112
-0.21568 -0.3889 -0.102299 151 130 112
-0.178915 -0.351588 -0.124268 30 20 12
-0.178915 -0.351588 -0.124268 30 20 12
-0.200205 -0.385642 -0.0985039 130 114 96
-0.203448 -0.372394 -0.110349 150 138 117
-0.275587 -0.393647 -0.100381 112 86 60
-0.281511 -0.40557 -0.090555 134 96 60
-0.148422 -0.315369 -0.143528 152 140 116
-0.231108 -0.335091 -0.140513 148 136 103
-0.357414 -0.334579 -0.160747 116 104 65
-0.412826 -0.43297 -0.0884208 116 104 65
-0.346939 -0.314574 -0.167987 106 87 55
-0.346939 -0.314574 -0.167987 106 87 55
-0.344618 -0.305414 -0.164836 138 108 82
-0.195015 -0.374922 -0.0746355 153 136 115
-0.374012 -0.426988 -0.0623038 124 88 70
-0.368337 -0.415765 -0.0663249 162 136 122
-0.357113 -0.396396 -0.0683385 113 20 15
-0.357113 -0.396396 -0.0683385 113 20 15
-0.355263 -0.336715 -0.110031 157 134 111
-0.355263 -0.336715 -0.110031 157 134 111
-0.356318 -0.350003 -0.0873849 98 74 35
-0.212456 -0.921607 -0.284699 146 27 18
-0.341914 -0.612048 -0.349732 92 64 46
-0.256924 -0.706453 -0.148825 114 83 69
-0.267925 -0.598588 -0.29016 154 145 115
-0.200966 -0.453986 -0.108283 160 127 107
-0.357955 -0.45569 -0.107788 77 54 44
-0.280215 -0.379598 -0.167383 116 66 40
-0.151288 -0.448915 -0.0532383 134 106 89
-0.349774 -0.853574 -0.296195 164 148 126
-0.302576 -0.793321 -0.409375 161 150 126
-0.347014 -0.747486 -0.380458 50 22 12
-0.340836 -0.730327 -0.378459 40 10 1
-0.340836 -0.730327 -0.378459 40 10 1
-0.253631 -0.681026 -0.385918 94 58 24
-0.154094 -0.676557 -0.268609 126 76 52
-0.265011 -0.599786 -0.296513 94 66 30
-0.270343 -0.597744 -0.289725 158 146 116
-0.219185 -0.672267 -0.141343 76 62 62
-0.215573 -0.671742 -0.139008 132 114 109
-0.196961 -0.599188 -0.135801 92 72 58
-0.258611 -0.469441 -0.175454 56 27 7
-0.36152 -0.409988 -0.24295 95 72 32
-0.365865 -0.474073 -0.156261 156 122 105
-0.365293 -0.473178 -0.156906 156 122 105
-0.217845 -0.417966 -0.169924 158 148 124
-0.291423 -0.451046 -0.119472 140 70 46
-0.329378 -0.449777 -0.11922 131 83 57
-0.373001 -0.44879 -0.113528 122 90 77
-0.212372 -0.443502 -0.101202 140 111 100
-0.212372 -0.443502 -0.101202 140 111 100
-0.196376 -0.455958 -0.0851378 158 128 117
-0.356931 -0.440761 -0.0978332 86 70 66
-0.386401 -0.373666 -0.169291 108 61 32
-0.276283 -0.363657 -0.154622 122 82 62
-0.14707 -0.449642 -0.0562665 129 100 85
-0.163739 -0.44766 -0.0541083 193 166 145
-0.173618 -0.444812 -0.0547586 194 164 150
-0.269235 -0.411112 -0.0895419 140 100 75
-0.269235 -0.411112 -0.0895419 140 100 75
-0.461007 -0.547948 0.0129732 94 70 50
-0.250329 -0.399683 -0.0890205 130 70 40
-0.292722 -0.370135 -0.119826 137 97 78
-0.198505 -0.370971 -0.104834 86 68 32
-0.269158 -0.34693 -0.129712 118 76 37
-0.37797 -0.415473 -0.0819939 8 8 6
-0.253846 -0.392433 -0.0831421 136 88 63
-0.35508 -0.412729 -0.0798115 154 134 126
-0.347621 -0.410091 -0.0766944 155 138 118
-0.364636 -0.398513 -0.0887217 114 73 48
-0.340483 -0.407659 -0.0636555 156 143 104
-0.335624 -0.377243 -0.0786112 46 22 15
-0.357187 -0.328196 -0.1126 159 137 110
-0.35533 -0.315119 -0.116604 155 148 95
-0.351784 -0.32026 -0.104444 146 144 92
-0.262085 -0.888336 -0.275752 24 14 29
-0.241137 -0.644976 -0.166938 140 84 65
-0.2165 -0.416502 -0.0959302 114 88 72
-0.2165 -0.416502 -0.0959302 114 88 72
-0.188331 -0.446166 -0.0613509 129 94 82
-0.186697 -0.441118 -0.0567828 150 90 66
-0.273567 -0.40332 -0.0860595 174 150 130
-0.341708 -0.886409 -0.303779 182 66 66
-0.220815 -0.91481 -0.279586 138 12 12
-0.295302 -0.845688 -0.308326 134 93 34
-0.224936 -0.868999 -0.290144 158 136 119
-0.244604 -0.652712 -0.398551 97 62 27
-0.286923 -0.631386 -0.358159 80 30 10
-0.277583 -0.35355 -0.13 34 16 4
-0.211322 -0.364081 -0.103394 128 82 58
