ply
format ascii 1.0
element vertex 795
property float x
property float y
property float z
property uchar red
property uchar green
property uchar blue
end_header
-0.382019 -0.786721 0.520736 0 255 0
-0.38949 -0.735248 0.559056 0 255 0
-0.433885 -0.899902 0.428746 0 255 0
-0.121716 -0.328906 0.0118302 0 255 0
-0.0875395 -0.0361584 -0.0472489 0 255 0
-0.405946 -0.712385 0.597136 0 255 0
-0.397069 -0.683528 0.621513 0 255 0
-0.423167 -0.729636 0.618076 0 255 0
-0.413326 -0.80746 0.493312 0 255 0
-0.0770576 -0.933361 -0.137664 148 98 38
-0.160042 -0.88945 -0.0864511 164 144 125
-0.0351691 -0.9244 -0.165283 148 118 102
-0.235205 -0.847824 -0.280985 130 122 84
-0.300929 -0.817767 -0.255938 64 34 14
-0.259037 -0.794896 -0.25884 50 7 2
-0.229943 -0.770055 -0.271831 46 16 8
-0.24738 -0.760209 -0.230775 152 144 94
-0.17381 -0.732105 -0.285676 100 66 30
-0.00625403 -0.72176 -0.241174 105 54 24
-0.204394 -0.571838 -0.23067 149 138 95
-0.0768411 -0.63812 -0.0380303 155 128 120
-0.0129411 -0.55844 -0.244765 138 106 74
0.00632489 -0.536605 -0.308787 96 72 35
-0.117496 -0.600975 0.0180102 122 72 56
0.0196633 -0.381203 -0.15931 78 56 38
-0.149248 -0.283505 -0.204764 122 85 43
-0.1527 -0.290379 -0.194625 122 85 43
-0.0435781 -0.281366 -0.210538 164 150 126
-0.147853 -0.310969 -0.160179 96 48 16
0.0348227 -0.346365 -0.0814729 201 178 172
-0.0996566 -0.300541 -0.0601566 87 75 76
-0.180996 -0.276784 -0.0847489 134 88 67
-0.097162 -0.305901 -0.0399613 46 16 10
-0.143611 -0.304449 -0.0400549 126 28 4
-0.0598361 -0.270239 -0.0804111 164 129 104
-0.157163 -0.282937 -0.0594314 160 134 122
-0.086747 -0.301017 -0.034654 100 66 60
-0.143225 -0.269474 -0.0557984 226 173 146
-0.143225 -0.269474 -0.0557984 226 173 146
-0.119316 -0.141711 -0.1802 60 40 30
-0.105466 -0.247679 -0.0433396 175 140 118
-0.0947175 -0.230113 -0.0423178 50 18 0
0.0434174 -0.143299 -0.113283 154 142 120
-0.116719 -0.201811 -0.0639846 110 88 48
-0.162774 -0.698597 -0.16692 82 30 14
-0.16146 -0.697557 -0.170678 82 30 14
-0.278894 -0.601577 -0.272216 94 66 44
-0.189645 -0.591959 -0.249815 121 74 59
-0.189966 -0.584715 -0.245195 148 100 85
-0.176367 -0.571749 -0.25131 26 12 9
-0.161076 -0.236185 -0.0902742 50 15 4
-0.113646 -0.956452 -0.0664359 170 122 73
-0.0374864 -0.967858 -0.179655 146 117 104
-0.200788 -0.858639 -0.31078 97 55 28
-0.158788 -0.823209 -0.252139 66 22 12
-0.199248 -0.652983 -0.279963 100 68 30
-0.0494023 -0.666329 -0.0770946 160 132 121
-0.0749633 -0.636988 0.0239563 190 170 161
-0.0587689 -0.30355 -0.183575 72 44 18
-0.252654 -0.37074 -0.0228748 154 122 108
0.0417137 -0.340003 -0.0265484 122 73 66
-0.229643 -0.334829 0.00892274 127 100 89
-0.259113 -0.327584 0.0168792 239 224 212
-0.372772 -0.752284 0.484464 128 72 63
-0.108352 -0.237126 -0.0433757 178 150 129
-0.108352 -0.237126 -0.0433757 178 150 129
-0.0447244 0.554456 -0.829369 142 115 80
-0.0742128 -0.946889 -0.150082 122 62 16
-0.18674 -0.570453 -0.220685 66 36 12
0.0874927 -0.555038 -0.221162 142 124 117
0.0181862 -0.393031 -0.11149 101 26 28
-0.014986 -0.394474 -0.106271 139 64 40
-0.0169063 -0.334016 -0.175879 110 66 42
-0.0584537 -0.346628 -0.136351 110 90 74
0.0393076 -0.349775 -0.0366115 116 64 58
-0.153777 -0.314389 -0.0422623 168 77 52
-0.343994 -0.72563 0.452224 148 107 69
-0.14559 -0.0516181 -0.269423 138 108 96
0.0327742 -0.265143 -0.0229815 174 122 105
-0.246088 -0.28791 0.00691293 138 111 98
-0.290577 -0.904854 -0.00382931 88 91 112
-0.0294959 -0.578579 0.0305903 158 31 30
-0.0294959 -0.578579 0.0305903 158 31 30
-0.0457869 -0.258219 -0.223684 88 68 40
0.0339858 -0.343262 -0.0256659 194 144 110
0.0339858 -0.343262 -0.0256659 194 144 110
-0.0364303 -0.249673 -0.0486929 182 156 134
-0.242364 -0.27557 -0.0211223 116 96 86
-0.237859 -0.276638 -0.0112769 202 186 182
-0.244358 -0.270761 -0.0178693 144 119 114
-0.242921 -0.268963 -0.0129872 150 128 120
-0.267412 -0.789378 -0.245382 152 97 82
-0.17244 -0.759496 -0.164466 90 31 14
-0.17244 -0.759496 -0.164466 90 31 14
-0.154969 -0.712326 -0.166961 176 124 106
-0.238731 -0.601963 -0.247887 32 8 2
-0.041748 -0.65081 -0.0805427 134 112 102
-0.250294 -0.553178 -0.29359 154 148 104
-0.0316772 -0.350089 -0.153481 141 104 80
0.00928491 -0.356138 -0.0686262 150 111 97
0.0111098 -0.33977 -0.0396887 172 150 144
0.0100342 -0.201904 -0.1172 143 117 93
-0.114262 -0.946462 -0.162979 22 12 24
-0.136927 -0.927341 -0.0994894 96 84 90
-0.053443 -0.958034 -0.137644 96 20 14
-0.067853 -0.948389 -0.11962 150 120 106
-0.185136 -0.910288 -0.13835 84 24 10
-0.198173 -0.902298 -0.122538 162 147 127
-0.0670183 -0.947284 -0.144566 98 10 6
-0.0965749 -0.927228 -0.123088 108 17 7
-0.0580296 -0.919523 -0.145215 152 130 116
-0.118327 -0.870131 -0.206454 157 139 118
-0.211719 -0.845882 -0.275743 30 8 4
-0.038053 -0.874959 -0.257637 104 63 28
-0.154844 -0.828136 -0.272926 106 67 54
-0.164988 -0.819868 -0.247832 138 96 77
-0.163828 -0.814908 -0.218811 136 94 74
-0.125807 -0.822005 -0.205471 168 122 98
-0.27726 -0.775359 -0.254369 164 110 87
-0.112191 -0.811598 -0.248737 192 148 128
-0.26821 -0.759816 -0.319362 157 145 98
-0.183705 -0.782541 -0.212958 126 81 56
-0.12165 -0.7936 -0.248 169 120 97
-0.180911 -0.773084 -0.249301 82 38 20
-0.180769 -0.731365 -0.298121 82 38 15
-0.148754 -0.744984 -0.182214 150 103 93
-0.158062 -0.738101 -0.168202 56 14 4
-0.171815 -0.705832 -0.327789 90 57 23
-0.161846 -0.693158 -0.384302 156 144 121
-0.176788 -0.707009 -0.2046 152 104 82
-0.182366 -0.708312 -0.183208 152 104 82
-0.161782 -0.692535 -0.350058 80 46 16
-0.096324 -0.707553 -0.296782 150 132 108
-0.163946 -0.685398 -0.310656 60 20 5
-0.153795 -0.675866 -0.352823 128 78 46
-0.170403 -0.672614 -0.339806 94 58 26
-0.167256 -0.687908 -0.183573 77 30 12
-0.174344 -0.686492 -0.181982 126 79 55
-0.177456 -0.670481 -0.243548 167 117 85
-0.250105 -0.643218 -0.300701 45 20 6
-0.159793 -0.677789 -0.180164 152 100 86
-0.176554 -0.661093 -0.229724 110 65 37
-0.185302 -0.657297 -0.223111 132 82 54
-0.185302 -0.657297 -0.223111 132 82 54
-0.0267034 -0.684824 -0.213145 132 78 56
-0.01417 -0.668115 -0.239887 201 154 130
-0.143281 -0.59792 -0.234843 26 8 1
-0.0428238 -0.648872 -0.0932083 156 128 118
-0.0432628 -0.64296 -0.0784909 92 68 58
-0.180378 -0.570409 -0.231095 142 122 96
-0.0736692 -0.611105 -0.112022 136 30 20
-0.0956258 -0.619425 -0.0294897 20 12 10
-0.0327707 -0.591792 -0.0684473 87 80 65
-0.0569511 -0.601432 -0.00444297 44 31 16
-0.0530173 -0.600325 -0.0105998 44 31 16
-0.0617727 -0.590688 -0.00455562 56 40 28
-0.0382549 -0.579385 -0.00917434 84 68 62
-0.0277008 -0.576588 -0.00566046 175 160 158
-0.047281 -0.544022 -0.0343559 154 136 121
-0.0494165 -0.541524 -0.0351863 153 137 118
-0.0477673 -0.536214 -0.0313114 152 136 118
-0.00176097 -0.523019 -0.0761455 78 64 53
-0.0483021 -0.457406 -0.184731 156 145 123
-0.0201994 -0.52112 -0.044343 150 132 118
-0.0133567 -0.525498 -0.0360405 147 129 116
-0.0254766 -0.526554 -0.0273977 101 80 71
-0.0232649 -0.525519 -0.030697 101 80 71
-0.0204108 -0.517236 -0.0433638 96 76 61
0.0211834 -0.194941 -0.640998 92 92 52
0.00363385 -0.383034 -0.165479 122 100 78
-0.0845211 -0.364651 -0.16817 155 146 125
-0.0659888 -0.365146 -0.146038 43 14 6
-0.0741331 -0.373417 -0.127806 43 14 6
-0.265076 -0.358712 -0.119859 158 126 102
-0.245678 -0.359993 -0.118654 96 90 69
-0.229805 -0.358523 -0.120875 102 81 46
-0.229519 -0.356565 -0.124507 102 81 46
-0.0980434 -0.352089 -0.150066 158 140 118
-0.225272 -0.358041 -0.117307 166 139 116
-0.0659129 -0.360019 -0.137363 50 29 12
-0.0659129 -0.360019 -0.137363 50 29 12
-0.101979 -0.347965 -0.151699 72 42 18
-0.0748502 -0.359618 -0.13299 98 71 42
-0.0550246 -0.353307 -0.146457 112 92 56
-0.223324 -0.361767 -0.107048 98 70 34
-0.283761 -0.335498 -0.143131 154 138 118
-0.11291 -0.351195 -0.140755 94 66 40
-0.0518199 -0.345915 -0.158285 116 94 64
-0.233122 -0.362801 -0.101739 160 134 116
-0.243836 -0.366184 -0.0928259 101 90 70
-0.153923 -0.35441 -0.126211 158 130 96
-0.143679 -0.3625 -0.11012 198 166 148
-0.26542 -0.365473 -0.0878386 152 128 108
-0.138965 -0.35847 -0.109097 156 128 115
-0.14099 -0.354988 -0.114351 52 30 22
-0.275455 -0.36552 -0.0768128 106 66 34
-0.0599439 -0.348597 -0.128755 84 66 48
-0.234821 -0.362772 -0.082599 84 68 59
-0.135071 -0.34928 -0.117412 106 69 50
-0.148984 -0.336667 -0.127061 98 24 9
-0.219658 -0.366156 -0.0703278 102 64 26
-0.153545 -0.328851 -0.13958 145 140 91
-0.136812 -0.34218 -0.115832 164 128 108
-0.117129 -0.338408 -0.118557 160 122 102
-0.141446 -0.334243 -0.121097 100 32 11
-0.221314 -0.362993 -0.0641528 151 116 94
-0.0447634 -0.29874 -0.181871 120 106 74
-0.105331 -0.3319 -0.120701 106 71 48
-0.0329799 -0.310296 -0.154086 69 42 17
-0.10803 -0.313715 -0.130857 75 92 77
-0.0327632 -0.347705 -0.0838019 145 118 106
-0.058612 -0.281767 -0.171615 42 22 8
-0.147529 -0.290267 -0.149095 152 150 99
-0.100956 -0.287082 -0.158242 65 50 24
-0.0158105 -0.364959 -0.0429371 114 65 43
-0.146007 -0.299066 -0.123441 152 150 97
-0.00799912 -0.359483 -0.0444681 198 174 170
0.042368 -0.359664 -0.0396773 178 150 144
-0.0609599 -0.338586 -0.0614859 69 28 12
-0.141215 -0.29563 -0.105819 76 76 47
-0.141234 -0.295654 -0.105743 76 76 47
-0.133539 -0.297956 -0.0994399 88 76 58
-0.154265 -0.294697 -0.101504 77 85 64
-0.305154 -0.280892 -0.105858 152 148 92
-0.0537475 -0.323009 -0.0610142 116 85 70
-0.156758 -0.294142 -0.0898681 156 130 116
-0.148002 -0.306785 -0.0720289 82 82 66
-0.106062 -0.321946 -0.0498642 123 86 68
-0.158728 -0.306586 -0.0681188 90 88 70
-0.00831858 -0.339441 -0.0294814 202 162 144
-0.0593088 -0.320304 -0.0466267 182 156 136
-0.0581297 -0.318861 -0.0488089 182 156 136
-0.0949284 -0.325811 -0.0349107 67 24 9
-0.0204492 -0.345237 -0.0125343 111 63 37
-0.159422 -0.289448 -0.0814703 166 136 126
-0.145638 -0.315025 -0.0407281 142 48 24
-0.00956672 -0.336358 -0.0167711 116 71 46
-0.156436 -0.312548 -0.0399057 127 17 7
-0.0959697 -0.3208 -0.0312932 62 25 12
-0.0418685 -0.307493 -0.049619 20 19 16
-0.0361604 -0.313732 -0.035076 174 144 130
-0.0118762 -0.330757 -0.011977 176 130 110
-0.116723 -0.301636 -0.0458682 19 17 21
-0.145802 -0.308206 -0.0345515 116 22 0
-0.218763 -0.32563 -0.00684693 64 40 30
-0.221582 -0.331189 0.00128513 64 40 30
-0.307776 -0.261925 -0.0880994 152 146 95
-0.255766 -0.297608 -0.0337146 174 132 110
-0.228529 -0.324615 -0.000111357 170 144 137
-0.31569 -0.264829 -0.0755825 152 144 104
-0.0631238 -0.290101 -0.0501394 166 113 92
-0.0301514 -0.296788 -0.0403562 114 101 84
-0.146458 -0.301957 -0.0278408 82 21 4
-0.127185 -0.294258 -0.0379325 22 11 12
-0.140786 -0.299383 -0.0303345 76 20 6
-0.219251 -0.319648 0.00307316 96 74 64
-0.175466 -0.25995 -0.0793321 129 82 56
-0.235828 -0.319882 0.00637253 82 59 50
-0.0767817 -0.295998 -0.030756 72 27 11
-0.115129 -0.295554 -0.0286137 32 16 9
-0.120179 -0.294431 -0.0294927 38 16 7
-0.0811373 -0.292413 -0.0331317 191 125 96
-0.219234 -0.316845 0.0057973 157 137 130
-0.151022 -0.273253 -0.0521376 94 46 26
-0.210932 -0.309176 -0.00154602 157 136 127
-0.321975 -0.242376 -0.0834266 154 100 72
-0.241713 -0.31327 0.00958401 93 75 70
-0.0961933 -0.288909 -0.0254433 56 25 19
-0.149645 -0.280835 -0.0335523 166 113 94
-0.0846944 -0.268351 -0.0461619 67 26 14
-0.054451 -0.263786 -0.04863 39 14 4
-0.123069 -0.251665 -0.0612933 12 6 6
-0.150478 -0.204438 -0.115392 53 14 3
-0.227187 -0.313806 0.0234759 186 169 166
-0.253017 -0.304617 0.0154765 230 213 209
-0.319802 -0.236439 -0.0685963 112 80 44
-0.241763 -0.294159 0.00207744 194 178 175
-0.125761 -0.255928 -0.0438993 158 86 59
-0.22678 -0.301099 0.0146006 193 176 172
-0.170433 -0.243962 -0.0531852 22 10 2
-0.136677 -0.160431 -0.150449 158 115 98
-0.144092 -0.199972 -0.105585 20 8 6
-0.0521276 -0.259024 -0.0340373 184 156 134
-0.0867114 -0.264131 -0.026469 54 20 4
-0.0833756 -0.259113 -0.0317319 58 26 8
-0.219013 -0.301154 0.0228041 178 159 154
-0.272422 -0.32845 0.0591342 146 106 86
-0.182769 -0.238818 -0.0488556 175 155 149
-0.102936 -0.251088 -0.0337906 106 62 43
-0.140829 -0.195613 -0.100536 17 9 5
-0.124048 -0.254001 -0.025307 176 142 120
0.0434376 -0.259168 -0.0199085 98 70 58
0.0434376 -0.259168 -0.0199085 98 70 58
-0.0779032 -0.217669 -0.0659149 140 72 46
0.0505516 -0.249923 -0.0206118 190 166 152
-0.145074 -0.184874 -0.0959364 153 146 98
-0.128095 -0.249032 -0.0196952 178 150 129
0.0581358 -0.23771 -0.033211 38 22 10
-0.0571117 -0.187772 -0.0919363 142 79 55
-0.052173 -0.194275 -0.0823391 125 84 64
-0.216616 -0.278794 0.0185691 132 18 18
-0.101335 -0.23909 -0.0246146 176 149 126
-0.108302 -0.242766 -0.019686 56 30 10
0.0296738 -0.240985 -0.0191109 138 80 53
-0.260789 -0.286736 0.0432755 93 70 51
0.0116809 -0.216427 -0.0332707 112 80 52
-0.200657 -0.256634 0.0131376 165 146 138
-0.213552 -0.257335 0.0176667 92 106 88
-0.204735 -0.247664 0.00906319 91 94 78
-0.230655 -0.261355 0.0262136 121 78 55
-0.230357 -0.261207 0.0261705 121 78 55
-0.223141 -0.255379 0.0204922 154 136 125
-0.211369 -0.251015 0.0182406 158 141 124
-0.211369 -0.251015 0.0182406 158 141 124
-0.192151 -0.238878 0.00836354 102 66 42
-0.233798 -0.256124 0.027055 164 122 98
-0.206894 -0.24053 0.011564 100 100 86
-0.231778 -0.251698 0.0251735 112 67 42
-0.224986 -0.251523 0.0255649 155 136 129
-0.217985 -0.241892 0.0173517 115 102 88
-0.231331 -0.249841 0.0261682 166 122 102
-0.199314 -0.231663 0.00943804 118 88 65
-0.231828 -0.245757 0.0264172 100 56 31
-0.196811 -0.229536 0.0114189 154 134 112
-0.189968 -0.216991 0.00024009 82 54 21
-0.190024 -0.217193 0.000340506 82 54 21
-0.231991 -0.239268 0.0263994 120 78 50
-0.192813 -0.20699 -0.00722574 150 132 112
-0.192813 -0.20699 -0.00722574 150 132 112
-0.208125 -0.225817 0.0163834 96 30 22
-0.202702 -0.219479 0.00961586 137 94 81
-0.252584 -0.146179 -0.0680139 162 137 115
-0.232813 -0.227941 0.0217507 152 136 124
-0.208213 -0.204471 0.00116792 167 128 95
-0.252056 -0.137372 -0.0703782 99 64 26
-0.205352 -0.201632 0.00249234 86 60 22
-0.210198 -0.194832 -0.00242205 108 78 44
-0.240799 -0.164208 -0.0332564 154 129 106
-0.242301 -0.169494 -0.0277052 154 129 106
-0.223314 -0.193446 -0.00139477 108 100 68
-0.243898 -0.16113 -0.0347244 101 70 33
-0.244023 -0.14653 -0.0468365 98 62 28
-0.244023 -0.14653 -0.0468365 98 62 28
-0.23651 -0.167272 -0.024787 104 72 37
-0.0706136 -0.95531 -0.131034 104 12 12
-0.166709 -0.912372 -0.0729029 130 110 114
-0.103202 -0.913005 -0.144643 114 26 22
-0.0563824 -0.909594 -0.0481464 120 14 20
-0.16423 -0.86837 -0.134518 154 106 48
-0.27756 -0.824763 -0.243767 35 12 9
-0.289067 -0.786685 -0.235902 37 16 7
-0.152158 -0.824688 -0.25563 67 28 12
-0.202541 -0.740191 -0.298892 90 51 20
-0.250783 -0.698051 -0.322599 150 146 90
-0.140504 -0.708573 -0.247819 88 37 24
-0.157093 -0.709693 -0.166184 65 13 3
-0.106261 -0.700832 -0.278826 72 32 14
-0.136348 -0.633917 -0.231407 101 59 43
-0.223116 -0.605283 -0.244743 26 8 4
-0.00201177 -0.657037 -0.213015 125 74 51
-0.0401368 -0.651568 -0.0884698 89 63 52
-0.044243 -0.647274 -0.0467788 156 129 116
-0.079285 -0.620966 -0.0385444 39 4 1
0.0348041 -0.628106 -0.0798147 67 33 24
-0.00715846 -0.578894 -0.0126224 66 25 18
-0.0206425 -0.535639 -0.0403637 113 102 96
-0.225269 -0.357932 -0.117458 168 144 120
-0.112897 -0.35092 -0.14138 100 72 46
-0.135865 -0.349625 -0.116373 102 65 46
-0.149681 -0.35114 -0.111528 156 125 95
-0.0585368 -0.347884 -0.128091 26 14 8
-0.260592 -0.364018 -0.0528731 100 60 26
-0.0636068 -0.306296 -0.169675 158 150 126
-0.228165 -0.36555 -0.0535584 108 72 49
-0.137653 -0.318368 -0.130541 124 36 23
-0.137653 -0.318368 -0.130541 124 36 23
-0.267539 -0.337583 -0.0511353 124 8 8
0.0422947 -0.352013 -0.0210622 178 157 151
-0.240613 -0.341119 -0.0109641 170 144 137
-0.0182785 -0.319299 -0.0548593 126 82 62
-0.0602962 -0.323283 -0.0377368 185 160 144
-0.0653 -0.314523 -0.0498292 122 94 81
-0.221972 -0.331605 -0.00911737 116 91 80
-0.201804 -0.323372 -0.0194814 134 86 62
-0.214284 -0.327795 -0.00190512 158 137 130
-0.0685984 -0.297192 -0.0461064 102 60 38
-0.254219 -0.332909 0.0111132 166 140 135
-0.315156 -0.250363 -0.0854552 101 46 21
-0.258109 -0.322916 0.0143087 119 98 94
-0.301591 -0.245687 -0.0723307 160 109 84
-0.0978303 -0.28201 -0.029508 52 12 4
-0.246569 -0.30174 0.000824099 62 46 41
-0.254143 -0.312501 0.0159834 82 60 52
-0.265848 -0.283826 -0.0183909 11 12 12
-0.230936 -0.305072 0.00772898 69 55 47
0.00937483 -0.296964 -0.00839687 142 110 100
-0.252006 -0.495213 0.253235 124 83 54
0.0716787 -0.276522 -0.0250078 150 116 104
-0.257598 -0.299504 0.0184981 122 79 54
0.0284253 -0.240634 -0.043623 212 195 191
-0.219358 -0.257937 -0.0180465 176 153 147
-0.258039 -0.279211 0.0279471 102 76 56
-0.199407 -0.232583 0.0105666 122 90 69
-0.199407 -0.232583 0.0105666 122 90 69
-0.219763 -0.235918 0.0176691 159 137 132
-0.249078 -0.135145 -0.0615301 154 148 96
-0.119643 -0.940278 -0.15089 26 15 29
-0.0188768 -0.938447 -0.12193 126 14 16
-0.131215 -0.831441 -0.301912 166 138 110
-0.18525 -0.787433 -0.212121 94 46 24
-0.183392 -0.783738 -0.219883 96 53 28
-0.155073 -0.740284 -0.167035 135 94 80
-0.166943 -0.685908 -0.298683 62 22 7
-0.155762 -0.656238 -0.406167 115 74 46
-0.257638 -0.64311 -0.258128 64 18 2
0.0508726 -0.707862 -0.193147 164 140 130
0.0508726 -0.707862 -0.193147 164 140 130
-0.275391 -0.62368 -0.259909 90 58 41
0.00262325 -0.677875 -0.262661 195 144 120
-0.0114408 -0.684914 -0.201618 226 174 135
-0.143758 -0.598151 -0.233911 29 8 1
-0.0702021 -0.65063 -0.0232372 128 104 96
-0.0955636 -0.649581 0.00629658 154 126 114
0.0266837 -0.638028 -0.092907 143 106 98
-0.1234 -0.556033 -0.286371 157 146 123
-0.069627 -0.605734 0.00266613 90 86 71
-0.0131054 -0.523876 -0.0305762 106 86 77
-0.0168464 -0.521269 -0.0307021 146 128 122
-0.0279716 -0.519306 -0.0276585 104 88 76
-0.0310662 -0.348534 -0.206979 150 138 118
-0.044587 -0.394639 -0.109891 94 64 32
-0.286626 -0.32927 -0.171577 145 138 90
-0.235171 -0.349097 -0.136402 100 90 64
-0.0295578 -0.355101 -0.154515 142 114 95
-0.110988 -0.353856 -0.143433 160 137 114
-0.222157 -0.359973 -0.110464 98 69 31
-0.13699 -0.363677 -0.113997 170 138 123
-0.15218 -0.35684 -0.122352 90 52 23
-0.140829 -0.304519 -0.191628 145 142 92
-0.0925405 -0.344183 -0.126901 154 126 108
-0.153407 -0.349895 -0.109179 172 132 108
-0.0459771 -0.317194 -0.156505 94 74 42
-0.0994989 -0.323109 -0.129758 102 80 64
-0.0249544 -0.302147 -0.168828 68 41 14
-0.217012 -0.366524 -0.0420781 100 58 26
-0.106003 -0.297368 -0.161641 18 26 14
-0.106003 -0.297368 -0.161641 18 26 14
-0.213384 -0.35667 -0.0268636 138 94 72
-0.102111 -0.298309 -0.107127 161 130 117
-0.0163079 -0.29304 -0.113645 184 160 150
-0.146247 -0.303362 -0.0773342 82 82 66
0.022182 -0.350038 -0.0130402 194 143 107
-0.165475 -0.312766 -0.0427253 109 28 17
-0.0555007 -0.313822 -0.0447768 42 28 20
-0.303634 -0.263082 -0.0906533 155 132 102
-0.234931 -0.325717 0.00909887 174 148 142
-0.0616628 -0.291387 -0.0423692 132 86 66
-0.236826 -0.322041 0.00953323 86 63 54
-0.326404 -0.24995 -0.0758085 210 159 134
-0.247116 -0.320574 0.0140745 94 71 64
-0.226472 -0.319633 0.0119689 85 67 60
-0.293947 -0.253516 -0.0697205 126 80 48
-0.24363 -0.318443 0.0150523 81 62 55
-0.242176 -0.314258 0.0112044 95 78 71
-0.254783 -0.308606 0.0133888 198 174 166
-0.112488 -0.1828 -0.111561 92 76 72
-0.106983 -0.253535 -0.0205749 126 70 44
0.00925152 -0.215573 -0.0605175 60 32 10
-0.25672 -0.2943 0.0353238 152 108 85
-0.191859 -0.245951 0.0108161 108 74 52
-0.198473 -0.238841 0.0130229 176 152 140
-0.236218 -0.216847 0.0128192 110 78 48
-0.240503 -0.218306 0.0217503 106 66 36
-0.1834 -0.904328 -0.131766 66 10 0
-0.215006 -0.84966 -0.268695 170 144 128
-0.261049 -0.790115 -0.241099 147 88 73
-0.187162 -0.787406 -0.205195 90 47 22
-0.16619 -0.693531 -0.177007 106 58 44
-0.0372217 -0.642178 -0.094556 158 134 121
-0.0370466 -0.639088 -0.0934351 158 134 122
-0.0421097 -0.61976 -0.0308622 60 45 40
-0.226341 -0.62878 0.134126 150 141 118
-0.251682 -0.350295 -0.13397 99 92 70
-0.0525665 -0.331909 -0.0846774 162 124 107
-0.156342 -0.292385 -0.107115 80 78 51
-0.051844 -0.290669 -0.0339392 118 94 76
-0.241769 -0.303436 0.00536471 171 153 148
-0.0803799 -0.244804 -0.0399864 157 142 119
-0.132234 -0.246675 -0.0260892 140 102 64
-0.188898 -0.971007 -0.119125 119 20 13
-0.11668 -0.91743 -0.110105 43 16 21
-0.186725 -0.851108 -0.293327 38 12 7
-0.168054 -0.858036 -0.184575 167 136 116
-0.0184245 -0.79882 -0.221437 64 22 15
-0.170717 -0.298983 -0.165493 168 148 102
-0.257254 -0.914257 -0.0988963 160 147 126
-0.152932 -0.931313 -0.0995565 24 20 30
-0.1578 -0.9246 -0.102782 29 19 26
-0.16589 -0.699161 -0.165577 178 126 110
-0.11616 -0.913233 -0.110903 48 20 27
-0.180525 -0.784371 -0.227081 95 51 25
-0.209109 -0.355863 -0.082736 162 146 104
-0.077258 -0.55062 -0.0297859 125 39 25
-0.0546521 -0.989833 -0.148567 157 122 107
-0.0867691 -0.968212 -0.11447 169 113 44
-0.0745359 -0.971519 -0.12364 162 107 36
-0.0528345 -0.984462 -0.152184 148 16 18
-0.033476 -1.00077 -0.195223 148 16 18
-0.0402129 -0.979706 -0.132851 136 16 14
-0.158841 -0.929686 -0.100845 20 12 20
-0.0461856 -0.975036 -0.173183 110 9 9
-0.0461856 -0.975036 -0.173183 110 9 9
-0.142534 -0.928802 -0.103519 20 16 28
-0.130465 -0.945911 -0.175187 32 20 30
-0.118605 -0.94495 -0.162903 22 17 30
-0.198755 -0.901897 -0.120816 162 148 130
-0.103929 -0.921889 -0.118 55 2 2
-0.222982 -0.882223 -0.166173 162 147 126
-0.16152 -0.859345 -0.157232 132 14 16
-0.258903 -0.829895 -0.193755 78 45 26
-0.0525759 -0.87822 -0.293443 100 64 32
-0.161531 -0.770818 -0.191394 174 112 90
-0.259374 -0.739894 -0.236132 149 143 91
-0.0439033 -0.786542 -0.207694 196 142 108
-0.159227 -0.737881 -0.164666 56 14 4
-0.105296 -0.71588 -0.281215 61 26 15
-0.170214 -0.691054 -0.169989 146 99 78
-0.0321686 -0.68494 -0.201127 134 80 56
-0.245861 -0.588315 -0.278429 76 41 24
-0.039824 -0.654642 -0.0819187 84 56 48
-0.0342019 -0.645016 -0.0844047 92 66 56
-0.0644488 -0.64274 -0.0476214 150 126 118
-0.206442 -0.551929 -0.29195 145 142 89
-0.194692 -0.565707 -0.233948 92 66 32
-0.00338158 -0.642123 -0.0521831 149 28 28
-0.0420864 -0.596903 -0.209213 174 131 114
-0.0366251 -0.624727 -0.0380919 102 87 80
-0.035153 -0.589234 -0.0197196 144 125 118
-0.0566557 -0.58577 -0.0116669 94 82 66
-0.0387335 -0.584402 -0.00749553 82 64 57
-0.0330593 -0.575013 -0.0108756 98 77 72
-0.062313 -0.541761 -0.0732842 138 31 22
-0.0202037 -0.548696 -0.0387131 77 26 18
0.0042138 -0.55542 -0.0221104 149 128 121
-0.0199639 -0.538274 -0.0351994 88 74 64
-0.0229166 -0.525089 -0.0356178 83 66 56
-0.265396 -0.359289 -0.118677 150 122 92
-0.275803 -0.343801 -0.139981 102 66 30
-0.275068 -0.344555 -0.128658 150 132 110
-0.147266 -0.367034 -0.106498 170 138 118
-0.0583817 -0.354626 -0.127225 128 97 78
-0.234798 -0.362748 -0.0828303 86 68 59
-0.0901075 -0.340929 -0.132199 152 122 102
-0.142788 -0.345441 -0.113533 164 127 109
-0.143238 -0.341957 -0.115042 110 59 32
-0.273361 -0.310371 -0.150686 118 96 80
-0.125366 -0.340347 -0.11317 160 122 104
-0.181309 -0.319929 -0.136649 144 140 90
-0.123228 -0.339502 -0.109908 110 64 39
-0.0821726 -0.316349 -0.150271 33 12 2
-0.0540072 -0.297834 -0.181405 89 70 37
-0.26005 -0.356919 -0.0446241 128 80 58
-0.262208 -0.354741 -0.0407093 102 7 4
-0.22126 -0.355221 -0.0452531 155 128 115
0.0339493 -0.347514 -0.0795989 246 226 220
-0.0162822 -0.362527 -0.0477598 188 140 120
-0.0290802 -0.360635 -0.0478775 94 52 26
-0.0289651 -0.360327 -0.0483996 94 52 26
-0.136956 -0.298124 -0.136843 144 142 88
0.00809792 -0.373304 -0.025712 195 164 158
-0.0676856 -0.344447 -0.0627634 180 111 82
-0.110534 -0.285182 -0.157751 90 51 16
-0.11832 -0.280515 -0.161781 94 68 24
-0.0566459 -0.342993 -0.0549422 164 134 118
-0.0506612 -0.327785 -0.0715166 42 19 8
0.0364247 -0.362499 -0.0196558 174 150 145
0.0307719 -0.366752 -0.0112894 174 150 145
0.0158378 -0.362638 -0.0150777 138 24 21
-0.0121898 -0.341065 -0.0265991 112 64 38
-0.15611 -0.310113 -0.0611204 156 127 112
-0.130355 -0.313793 -0.0498556 23 16 14
-0.130355 -0.313793 -0.0498556 23 16 14
-0.00666357 -0.343517 -0.0139431 178 152 146
-0.159489 -0.313879 -0.0465961 126 12 8
-0.122021 -0.314159 -0.0449742 18 10 10
-0.126454 -0.314993 -0.0409651 118 108 108
-0.0197325 -0.333405 -0.0103593 96 50 26
-0.0161471 -0.334925 -0.00473391 190 147 127
-0.0433305 -0.300084 -0.046333 77 36 13
-0.233187 -0.317637 -0.00657714 95 70 60
-0.227525 -0.319518 -0.00354379 62 40 29
-0.227525 -0.319518 -0.00354379 62 40 29
-0.23032 -0.314795 -0.00840046 198 173 162
-0.313599 -0.251425 -0.0963674 153 145 103
-0.308523 -0.254452 -0.0884038 106 59 26
-0.227619 -0.316059 0.0038666 178 158 152
-0.247755 -0.314334 0.00390089 68 48 41
-0.142989 -0.287274 -0.0384455 90 33 14
-0.208722 -0.304676 -0.00856177 156 136 128
-0.227068 -0.313196 0.00868253 152 135 130
-0.227068 -0.313196 0.00868253 152 135 130
-0.304831 -0.250451 -0.0771709 117 64 34
-0.22919 -0.30833 0.00326504 67 53 46
-0.230891 -0.302773 -0.000212251 158 140 133
-0.240842 -0.305426 0.00656699 177 160 153
-0.214912 -0.297589 -0.005395 76 62 57
-0.228475 -0.299809 -0.000489276 64 50 42
-0.224888 -0.300078 0.00262075 75 59 54
0.0301378 -0.317813 0.016504 128 99 86
-0.100737 -0.280211 -0.0289984 159 94 68
-0.150235 -0.214122 -0.11534 59 23 5
-0.310806 -0.226477 -0.0880648 98 64 26
-0.296099 -0.235689 -0.0739591 18 8 3
-0.22174 -0.293763 0.0072438 95 76 70
-0.0991617 -0.265614 -0.0321047 177 146 127
-0.116266 -0.268998 -0.0234523 144 76 40
-0.131899 -0.256425 -0.0376906 24 4 2
-0.131899 -0.256425 -0.0376906 24 4 2
-0.0482344 -0.265868 -0.0249038 184 155 136
-0.0877168 -0.265593 -0.0243167 54 18 2
-0.129905 -0.251379 -0.0389359 154 96 73
-0.133231 -0.247638 -0.0396212 75 50 42
-0.0518627 -0.233464 -0.0566893 32 27 22
-0.148401 -0.202189 -0.095836 19 7 2
-0.150923 -0.201644 -0.0965097 12 10 8
0.0310833 -0.279464 0.00409413 167 138 116
-0.133286 -0.243977 -0.0384111 163 126 104
-0.214715 -0.274557 0.012485 128 23 19
-0.121292 -0.250635 -0.0170494 48 34 22
-0.002244 -0.209318 -0.0423806 103 63 29
-0.231562 -0.253601 0.0192793 168 123 102
-0.201352 -0.243658 0.0143757 152 134 124
-0.19693 -0.236144 0.00935177 191 166 153
-0.231336 -0.238983 0.0194564 106 62 35
-0.257311 -0.201535 -0.0194811 138 112 91
-0.200021 -0.205301 -0.00174792 56 28 18
-0.236735 -0.197341 -0.00868404 104 64 32
-0.248711 -0.140472 -0.0680345 94 62 24
-0.248711 -0.140472 -0.0680345 94 62 24
-0.25177 -0.135419 -0.0728688 96 62 24
-0.241393 -0.186441 -0.0115815 102 66 30
-0.244723 -0.139521 -0.0665031 158 138 113
-0.23439 -0.194022 0.000676387 156 140 116
-0.226446 -0.176421 -0.0146401 111 82 58
-0.189401 -0.970091 -0.115518 120 22 13
-0.215051 -0.955255 -0.0971282 143 43 29
-0.25771 -0.934359 -0.0922835 161 144 124
-0.173394 -0.957739 -0.0756483 102 3 5
-0.117458 -0.961067 -0.0980341 60 36 45
-0.231547 -0.910416 -0.105225 116 14 12
-0.0596865 -0.910723 -0.110009 114 20 18
-0.114089 -0.895786 -0.177805 160 140 124
-0.181566 -0.830333 -0.229711 95 44 31
-0.265141 -0.777251 -0.242622 112 56 35
-0.150669 -0.712183 -0.178361 178 121 103
-0.157732 -0.672094 -0.333329 80 31 7
-0.0706478 -0.670543 -0.238699 166 113 93
-0.109892 -0.577833 -0.319014 170 150 126
-0.0550759 -0.621688 -0.160335 111 64 46
-0.0487554 -0.631544 -0.0884675 153 119 108
0.0311538 -0.635477 -0.0791937 68 30 24
-0.217251 -0.636293 0.199218 73 40 16
-0.203151 -0.600274 0.0670131 144 136 114
-0.203151 -0.600274 0.0670131 144 136 114
-0.00876143 -0.542726 -0.255936 90 66 30
-0.0337045 -0.539155 -0.0355315 150 131 116
-0.26368 -0.341618 -0.160126 94 68 26
-0.0694909 -0.417901 -0.0380529 92 57 29
-0.277233 -0.321941 -0.18617 104 66 28
-0.0380245 -0.337872 -0.180524 113 89 56
-0.109531 -0.342894 -0.156966 154 124 108
-0.246654 -0.367194 -0.0817024 156 132 118
-0.223054 -0.359294 -0.061756 179 145 130
-0.193874 -0.328549 -0.104036 156 140 104
0.121443 -0.315309 -0.159792 212 188 182
0.116267 -0.278627 -0.210048 251 236 230
-0.148209 -0.249913 -0.219874 158 146 107
-0.0274919 -0.213968 -0.283482 94 78 49
-0.0799483 -0.250857 -0.210914 128 122 78
-0.105187 -0.342166 -0.0508879 189 120 81
-0.0922586 -0.328268 -0.0749382 206 143 107
-0.204036 -0.34433 -0.029549 164 148 105
-0.117229 -0.266725 -0.157168 148 140 100
-0.131325 -0.280904 -0.125627 78 84 65
-0.0828214 -0.309187 -0.0840935 132 76 51
-0.269931 -0.356496 0.0147107 192 152 130
-0.101332 -0.351769 0.00370104 184 157 138
-0.237643 -0.336117 0.0185329 102 75 67
-0.253924 -0.317371 -0.00314471 120 84 70
-0.261962 -0.337646 0.0389884 86 65 57
-0.232644 -0.336028 0.0384395 89 71 63
-0.25437 -0.33699 0.0420895 126 106 100
-0.154488 -0.275015 -0.0529377 169 142 132
-0.121974 -0.179441 -0.17323 66 26 11
-0.153472 -0.228015 -0.101147 162 144 112
-0.267477 -0.32643 0.0436249 138 102 84
-0.231255 -0.300801 0.00860624 192 173 170
-0.107913 -0.250022 -0.0654808 144 77 44
0.0167269 -0.290357 -0.00939627 140 105 90
-0.236791 -0.326523 0.0536127 111 92 86
-0.263473 -0.327406 0.0567044 118 94 86
-0.142724 -0.218972 -0.0888065 78 26 13
-0.196474 -0.31715 0.0475301 78 26 13
-0.00679875 -0.162419 -0.15988 151 130 112
-0.00679875 -0.162419 -0.15988 151 130 112
0.0979211 -0.0229328 -0.34308 30 20 12
0.0979211 -0.0229328 -0.34308 30 20 12
-0.039329 -0.228911 -0.0623199 130 114 96
0.0245221 -0.113261 -0.219038 150 138 117
-0.127324 -0.230651 -0.04962 112 86 60
-0.135951 -0.254128 -0.0170024 134 96 60
0.218628 0.150206 -0.562256 152 140 116
-0.0967126 -0.170114 -0.127931 148 136 103
-0.263625 -0.168568 -0.120367 116 104 65
-0.299526 -0.297509 0.0495144 116 104 65
-0.252824 -0.134238 -0.152116 106 87 55
-0.252824 -0.134238 -0.152116 106 87 55
-0.248819 -0.117054 -0.156186 138 108 82
0.0650969 -0.0882439 -0.187512 153 136 115
-0.255509 -0.315066 0.107771 124 88 70
-0.248855 -0.295481 0.0893791 162 136 122
-0.235219 -0.263388 0.0672364 113 20 15
-0.235219 -0.263388 0.0672364 113 20 15
-0.244139 -0.164995 -0.0428256 157 134 111
-0.244139 -0.164995 -0.0428256 157 134 111
-0.238896 -0.187294 0.00367288 98 74 35
-0.0547511 -0.980182 -0.12553 146 27 18
-0.281943 -0.607704 -0.254807 92 64 46
-0.0908862 -0.663355 -0.00175678 114 83 69
-0.167099 -0.568018 -0.213792 154 145 115
-0.0298293 -0.315331 -0.0625944 160 127 107
-0.233206 -0.328441 0.00663716 77 54 44
-0.163857 -0.239959 -0.128168 116 66 40
0.056226 -0.286609 -0.017475 134 106 89
-0.2396 -0.903679 -0.108782 164 148 126
-0.231434 -0.859497 -0.284008 161 150 126
-0.283531 -0.793107 -0.240612 50 22 12
-0.277224 -0.770236 -0.246632 40 10 1
-0.277224 -0.770236 -0.246632 40 10 1
-0.17684 -0.705067 -0.305284 94 58 24
-0.0054847 -0.657258 -0.206187 126 76 52
-0.166552 -0.571875 -0.221046 94 66 30
-0.171597 -0.567483 -0.209647 158 146 116
-0.0398385 -0.614335 -0.0245834 76 62 62
-0.0338207 -0.612586 -0.0243615 132 114 109
-0.0197325 -0.516967 -0.0479278 92 72 58
-0.129395 -0.362309 -0.114783 56 27 7
-0.294274 -0.309632 -0.178139 95 72 32
-0.257877 -0.365998 -0.0487163 156 122 105
-0.25752 -0.365012 -0.0500056 156 122 105
-0.082636 -0.291752 -0.138998 158 148 124
-0.151585 -0.320689 -0.0393417 140 70 46
-0.199951 -0.320041 -0.02519 131 83 57
-0.252913 -0.316408 -0.0047627 122 90 77
-0.0455177 -0.302567 -0.0485144 140 111 100
-0.0455177 -0.302567 -0.0485144 140 111 100
-0.0178847 -0.313615 -0.0301439 158 128 117
-0.227514 -0.300711 0.0072139 86 70 66
-0.302567 -0.238183 -0.0884779 108 61 32
-0.158372 -0.217508 -0.114244 122 82 62
0.0535276 -0.295267 -0.0137982 129 100 85
0.0331467 -0.292565 -0.00534438 193 166 145
0.020762 -0.288752 -0.00418889 194 164 150
-0.11677 -0.256899 -0.0239029 140 100 75
-0.11677 -0.256899 -0.0239029 140 100 75
-0.302926 -0.409054 0.218214 94 70 50
-0.0942259 -0.241451 -0.033476 130 70 40
-0.164356 -0.21403 -0.0643879 137 97 78
-0.0392014 -0.208243 -0.0802743 86 68 32
-0.139634 -0.182669 -0.0972989 118 76 37
-0.251439 -0.261275 0.025588 8 8 6
-0.0966747 -0.228977 -0.0285361 136 88 63
-0.221236 -0.255713 0.0179701 154 134 126
-0.210789 -0.251005 0.0182695 155 138 118
-0.238896 -0.239567 0.00550112 114 73 48
-0.195793 -0.241011 0.0283081 156 143 104
-0.200065 -0.20611 -0.000665442 46 22 15
-0.248525 -0.153368 -0.049201 159 137 110
-0.24909 -0.135577 -0.0609106 155 148 95
-0.239149 -0.138607 -0.0449374 146 144 92
-0.115471 -0.937994 -0.10994 24 14 29
-0.0823038 -0.588334 -0.0537156 140 84 65
-0.0507818 -0.263572 -0.0517634 114 88 72
-0.0507818 -0.263572 -0.0517634 114 88 72
0.00187896 -0.290822 -0.00991179 129 94 82
0.00514967 -0.282542 -0.00656205 150 90 66
-0.121871 -0.245455 -0.0204884 174 150 130
-0.229464 -0.946449 -0.107568 182 66 66
-0.0621714 -0.971144 -0.12136 138 12 12
-0.177251 -0.8943 -0.146242 134 93 34
-0.0776152 -0.915712 -0.146267 158 136 119
-0.169631 -0.671684 -0.347256 97 62 27
-0.212619 -0.633281 -0.281546 80 30 10
-0.149711 -0.192844 -0.0910905 34 16 4
-0.0523719 -0.194491 -0.081972 128 82 58
