ply
format ascii 1.0
element vertex 319
property float x
property float y
property float z
property uchar red
property uchar green
property uchar blue
end_header
-2.79636 -1.6849 0.0406228 0 255 0
-2.76204 -1.6211 0.0763621 0 255 0
-2.74047 -1.56421 0.101619 0 255 0
-2.7286 -1.49371 0.140661 0 255 0
-1.94753 -1.29918 2.57282 0 255 0
-2.25411 -1.67631 0.526845 0 255 0
-2.1186 -1.6336 0.533557 0 255 0
-2.62103 -1.86829 0.210817 0 255 0
-2.59538 -1.73991 0.273255 0 255 0
-2.59104 -1.62353 0.324404 0 255 0
-2.62558 -1.90431 0.17695 0 255 0
-2.12112 -1.94939 -0.123963 154 150 143
-2.10778 -1.96046 -0.114597 154 149 140
-2.1346 -1.93137 -0.137152 22 28 27
-2.09901 -1.89676 -0.182484 122 52 22
-2.10982 -1.85081 -0.164556 51 62 2
-2.12661 -1.84513 -0.147416 166 170 164
-2.11388 -1.841 -0.164755 164 150 17
-2.10413 -1.84235 -0.168356 164 150 17
-2.1084 -1.83718 -0.157654 170 166 30
-2.09956 -1.82936 -0.165225 166 145 26
-2.21036 -1.82786 -0.00867355 170 142 111
-2.12653 -1.65288 -0.0828759 56 34 15
-2.19807 -1.57028 -0.188325 96 82 78
-2.17571 -1.60947 -0.117992 70 45 17
-2.15659 -1.61848 -0.101876 77 49 24
-2.18515 -1.59867 -0.117473 152 152 134
-2.19228 -1.59281 -0.124229 142 154 142
-2.18362 -1.58928 -0.11557 148 96 96
-2.167 -1.59533 -0.0971167 118 72 44
-2.18233 -1.58595 -0.109443 174 156 133
-2.1757 -1.58122 -0.103125 148 112 68
-2.22604 -1.5561 -0.135286 54 40 32
-2.17758 -1.57587 -0.103031 148 122 92
-2.16009 -1.58436 -0.0858957 214 180 138
-2.16009 -1.58436 -0.0858957 214 180 138
-2.04713 -1.64 0.00697913 87 56 20
-2.1737 -1.57094 -0.0949483 185 172 124
-2.17523 -1.56623 -0.0927558 187 170 131
-2.22735 -1.54152 -0.133595 133 102 52
-2.15618 -1.56706 -0.0778196 212 196 172
-2.06302 -1.61353 0.00466951 150 91 72
-2.17423 -1.55167 -0.089154 128 103 82
-2.22073 -1.52991 -0.122983 93 56 10
-2.18131 -1.54376 -0.089464 191 152 108
-2.21235 -1.52875 -0.115278 86 52 12
-2.16826 -1.54912 -0.0782265 134 95 50
-2.17637 -1.54183 -0.0821747 144 105 66
-2.18323 -1.53599 -0.0876879 121 86 72
-2.07723 -1.57873 0.000645927 214 191 162
-2.23768 -1.50631 -0.12901 163 132 94
-2.15954 -1.53816 -0.0673698 211 180 198
-2.16266 -1.53516 -0.0684376 136 94 102
-2.16534 -1.52933 -0.0690098 210 187 176
-2.23113 -1.50101 -0.118505 169 150 112
-2.08445 -1.56252 0.00264559 157 120 81
-2.06203 -1.57062 0.0214665 168 138 135
-2.17698 -1.51996 -0.0769585 114 78 100
-2.20527 -1.50737 -0.0995184 182 172 178
-2.15871 -1.52418 -0.0595853 150 128 112
-2.22301 -1.49695 -0.110035 133 110 56
-2.17731 -1.51282 -0.0739468 200 177 152
-2.18452 -1.50962 -0.079338 199 161 124
-2.16075 -1.51735 -0.0570274 208 200 182
-2.18571 -1.50592 -0.0775731 125 92 76
-2.2277 -1.48929 -0.110639 182 170 130
-2.22244 -1.48984 -0.10703 92 75 53
-2.20337 -1.49522 -0.0906951 188 156 105
-2.20329 -1.49526 -0.0906415 188 156 105
-2.09596 -1.54614 0.0149563 200 164 122
-2.21075 -1.48732 -0.0963837 128 100 52
-2.22129 -1.48259 -0.103328 122 106 74
-2.17973 -1.49724 -0.0690097 144 109 60
-2.19487 -1.48569 -0.0784148 210 178 132
-2.21589 -1.47392 -0.0938622 105 83 49
-2.21461 -1.47335 -0.0912981 173 156 96
-2.22382 -1.45818 -0.0934301 136 113 104
-2.18387 -1.46591 -0.0602193 156 124 57
-2.20972 -1.45413 -0.0805134 152 120 52
-2.21942 -1.45042 -0.0868252 158 128 60
-2.18906 -1.45492 -0.0605259 84 51 8
-2.18948 -1.45517 -0.0604981 84 51 8
-2.19012 -1.44896 -0.0589598 106 72 16
-2.2208 -1.44096 -0.0818672 150 119 52
-2.19953 -1.44593 -0.0651414 147 112 49
-2.17023 -1.45073 -0.0395364 170 152 138
-2.22634 -1.42998 -0.0870672 62 40 28
-2.16682 -1.44908 -0.0341691 100 83 99
-2.09378 -1.47 0.0307023 144 113 56
-2.20144 -1.4315 -0.0621324 152 122 60
-2.172 -1.39824 -0.0860727 91 77 62
-2.21264 -1.41534 -0.0566806 74 52 34
-2.21171 -1.40252 -0.0553997 86 74 64
-2.20701 -1.40165 -0.0503183 138 110 65
-2.16227 -1.55643 -0.0765909 170 126 110
-2.16298 -1.58325 -0.0927654 164 98 76
-2.23539 -1.89923 0.036448 150 147 141
-2.23294 -1.87535 -0.00117324 68 74 54
-2.24032 -1.87881 0.0251058 22 22 26
-2.12395 -1.84703 -0.157153 54 62 2
-2.23629 -1.85901 0.0101234 156 134 106
-2.24117 -1.86439 0.0489695 18 18 19
-2.21465 -1.8481 -0.00704147 8 46 30
-2.21318 -1.8213 -0.0064482 102 67 66
-2.20237 -1.78605 0.016329 161 117 42
-2.20471 -1.77802 0.0232728 92 60 48
-2.19611 -1.77331 0.0158002 144 146 134
-2.2004 -1.78951 0.0607111 15 15 16
-2.18136 -1.73417 0.069678 176 162 162
-2.02607 -1.62929 0.0314991 60 40 20
-2.13971 -1.51905 -0.0366855 130 102 54
-2.02056 -1.54161 0.074586 100 76 41
-2.09412 -1.47838 0.0251656 68 44 24
-2.12218 -1.8764 -0.172373 118 50 12
-2.11572 -1.81337 -0.15099 104 54 6
-2.07938 -1.78477 -0.132537 16 64 40
-2.20585 -1.57581 -0.194248 226 226 228
-2.14104 -1.57975 -0.0659795 54 25 3
-2.18551 -1.53673 -0.0910611 188 155 118
-2.1856 -1.53675 -0.0909498 188 155 118
-2.06824 -1.59069 0.00654821 102 77 56
-2.13865 -1.54334 -0.0472106 100 66 55
-2.19386 -1.51358 -0.0905546 134 108 64
-2.04096 -1.57338 0.0437904 62 34 34
-2.20827 -1.49546 -0.0941711 194 163 118
-2.15672 -1.51071 -0.0528915 186 134 120
-2.16703 -1.48871 -0.051515 184 147 106
-2.21399 -1.46736 -0.0895144 168 142 116
-2.16866 -1.46259 -0.0422529 126 69 60
-2.20274 -1.44395 -0.0718525 104 88 70
-2.16669 -1.39076 -0.0911759 214 213 214
-2.52745 -1.52829 0.0112211 218 218 218
-2.17212 -1.58193 -0.101697 198 162 120
-2.17228 -1.58052 -0.102209 198 162 120
-2.20957 -1.52992 -0.111163 80 46 9
-2.23519 -1.48523 -0.11262 153 137 103
-2.17113 -1.47008 -0.0435378 220 158 144
-2.20837 -1.41383 -0.0574763 78 52 28
-2.23642 -1.58144 -0.147159 84 52 22
-2.16515 -1.60886 -0.105582 142 107 87
-2.15362 -1.58485 -0.0855943 184 131 92
-2.18612 -1.59523 -0.117809 108 92 88
-2.18134 -1.59318 -0.111086 130 116 91
-2.16156 -1.60182 -0.095155 182 134 96
-2.18429 -1.58876 -0.112347 116 94 102
-2.21866 -1.56467 -0.137827 124 89 48
-2.16505 -1.59215 -0.095332 187 136 90
-2.06748 -1.64316 -0.0163939 41 26 16
-2.22094 -1.55107 -0.126747 66 36 11
-2.07392 -1.62317 -0.0152388 70 37 8
-2.09998 -1.60369 -0.0336229 88 52 17
-2.03524 -1.57935 0.0437717 64 36 34
-2.22741 -1.49246 -0.113585 166 154 134
-2.04188 -1.54121 0.0525713 90 59 15
-2.06894 -1.52299 0.0356776 186 180 170
-2.14689 -1.46808 -0.0232058 168 146 114
-2.10844 -1.45001 0.0201808 146 117 54
-2.12355 -1.86058 -0.146606 26 65 44
-2.2049 -1.60552 -0.148274 112 84 50
-2.18879 -1.61753 -0.130178 110 82 44
-2.16239 -1.60185 -0.0949928 181 133 98
-2.36943 -1.6335 0.0208861 142 136 139
-2.07349 -1.59667 -0.000479407 192 146 103
-2.22473 -1.52012 -0.125167 142 109 52
-2.13012 -1.55021 -0.0405688 163 121 66
-2.20666 -1.51063 -0.100839 117 94 84
-2.04109 -1.57346 0.0436711 62 34 37
-2.19008 -1.44887 -0.058975 110 72 14
-2.18019 -1.41067 -0.0305554 71 45 16
-2.1499 -1.58277 -0.0788833 98 58 45
-2.19286 -1.5284 -0.0947061 110 74 54
-2.10301 -1.56854 -0.0214347 146 103 66
-2.21991 -1.51403 -0.115318 78 56 36
-2.20115 -1.52189 -0.0994356 104 75 86
-2.18659 -1.52815 -0.0882253 196 154 104
-2.17381 -1.53132 -0.0783177 209 138 94
-2.16138 -1.52134 -0.0600703 206 196 178
-2.20759 -1.49527 -0.0944386 202 173 124
-2.18821 -1.43747 -0.0529667 110 74 19
-2.19687 -1.43396 -0.0605534 100 64 12
-2.06402 -1.55559 0.0262915 156 144 142
-2.15623 -1.92152 -0.101206 28 54 41
-2.19803 -1.52159 -0.0960583 112 79 60
-2.2292 -1.49653 -0.117568 162 152 150
-2.24358 -1.48239 -0.118477 73 46 29
-2.24358 -1.48239 -0.118477 73 46 29
-2.20335 -1.48694 -0.0868086 127 115 82
-2.10932 -1.52033 -0.00680623 78 45 10
-2.04051 -1.56698 0.107776 146 138 132
-2.01826 -1.53993 0.0782731 188 180 177
-2.15464 -1.46735 -0.030461 167 138 117
-2.2082 -1.44143 -0.0783746 42 27 18
-2.16274 -1.45693 -0.0328166 135 109 88
-2.17585 -1.42531 -0.0944993 102 90 85
-2.17968 -1.49142 -0.0644762 140 109 86
-2.18766 -1.52061 -0.0849905 174 136 88
-2.18768 -1.52073 -0.0849818 174 136 88
-2.2092 -1.5009 -0.0986295 112 85 81
-2.2051 -1.4869 -0.0887343 80 72 40
-2.18284 -1.55005 -0.0942894 111 80 38
-2.20619 -1.53407 -0.111487 88 54 13
-2.20619 -1.53407 -0.111487 88 54 13
-2.1653 -1.47224 -0.0429584 180 128 118
-2.16513 -1.4724 -0.0429614 180 128 118
-2.12628 -1.86417 -0.167439 156 142 14
-2.24824 -1.52905 -0.150361 90 53 12
-2.22743 -1.49674 -0.118273 164 152 140
-2.21883 -1.49644 -0.107297 118 94 58
-2.19099 -1.50436 -0.0818788 158 136 76
-2.18471 -1.45843 -0.0576985 126 92 36
-2.15139 -1.53112 -0.0532846 198 180 168
-2.16694 -1.51768 -0.062882 150 128 107
-2.24124 -1.47401 -0.111992 74 43 19
-2.19763 -1.50599 -0.0892235 140 100 72
-2.14269 -1.52446 -0.0414936 120 94 73
-2.10606 -1.53755 -0.00991579 120 98 68
-2.06814 -1.55714 0.019649 107 64 53
-2.20439 -1.48153 -0.0852302 162 148 126
-2.13491 -1.51612 -0.0300391 122 84 60
-2.24023 -1.92145 0.0384716 86 28 32
-2.22305 -1.889 0.021229 26 26 28
-2.18875 -1.55367 -0.172062 72 56 45
-2.03088 -1.67465 0.0115305 180 174 174
-2.23578 -1.49023 -0.120293 156 142 151
-2.22966 -1.45869 -0.101801 124 121 140
-2.16161 -1.44372 -0.0252639 144 90 78
-2.11202 -1.84984 -0.16805 189 179 6
-2.16703 -1.5731 -0.0937474 118 87 64
-2.20181 -1.50074 -0.095003 114 98 142
-2.20849 -1.49521 -0.0944618 202 172 124
-2.22727 -1.57336 -0.146031 44 30 21
-2.12692 -1.59624 -0.0580886 76 40 6
-2.05201 -1.63396 0.000924353 50 24 2
-2.1434 -1.5737 -0.0660889 92 59 11
-2.21407 -1.53281 -0.119186 113 75 12
-2.07036 -1.59885 -0.000424999 150 105 60
-2.07745 -1.5917 -0.00485153 176 144 99
-2.0655 -1.59159 0.00751529 149 122 102
-2.21934 -1.50844 -0.107058 88 72 44
-2.08945 -1.55998 -0.00677009 176 140 113
-2.1981 -1.50638 -0.0889388 149 110 80
-2.16592 -1.51958 -0.0617422 198 184 159
-2.0579 -1.56869 0.0246 90 70 71
-2.05807 -1.56202 0.0256237 162 116 106
-2.06294 -1.56059 0.0230463 162 124 102
-2.14884 -1.53019 -0.0292263 180 146 96
-2.10755 -1.53476 -0.0113583 172 159 152
-2.11511 -1.52787 -0.0167673 177 142 90
-2.21061 -1.47683 -0.0877435 148 130 68
-2.03157 -1.50951 0.000773636 98 67 8
-2.19509 -1.47995 -0.0731896 178 140 90
-2.15693 -1.49367 -0.0431096 157 126 78
-2.09752 -1.51224 0.00680139 138 108 48
-2.18863 -1.46373 -0.0675862 164 132 44
-2.1003 -1.50206 0.00236064 190 188 190
-2.06545 -1.51937 0.0310212 66 46 19
-2.13127 -1.47994 -0.0142408 40 22 6
-2.19957 -1.43563 -0.0794597 194 200 204
-2.14639 -1.46764 -0.0235172 164 142 108
-2.11976 -1.47647 -0.00396531 106 74 17
-2.12632 -1.46791 -0.00847914 98 64 37
-2.12632 -1.46791 -0.00847914 98 64 37
-2.09448 -1.48003 0.0156649 144 112 58
-2.13402 -1.45668 -0.0102223 87 54 38
-2.16774 -1.43173 -0.0360755 184 168 136
-2.13936 -1.44299 -0.0137048 182 174 146
-2.11288 -1.45419 0.00775699 90 59 12
-2.1102 -1.43596 0.0160833 167 166 162
-2.10102 -1.80997 -0.163045 122 58 53
-2.18001 -1.59691 -0.111322 168 154 113
-2.17052 -1.58303 -0.0951851 134 65 42
-2.19745 -1.56611 -0.117852 140 103 38
-2.17492 -1.56241 -0.0916094 168 156 116
-2.1728 -1.56298 -0.0890407 116 106 67
-2.20061 -1.54053 -0.108368 98 60 10
-2.20544 -1.53251 -0.109929 136 102 44
-2.06659 -1.55457 0.0208073 158 100 84
-2.20848 -1.44114 -0.0785258 41 25 16
-2.16426 -1.44104 -0.0327635 69 50 63
-2.18465 -1.41296 -0.0450223 154 120 49
-2.21493 -1.58675 -0.160547 112 74 28
-2.21493 -1.58675 -0.160547 112 74 28
-2.02152 -1.66701 0.00469086 86 68 50
-2.21592 -1.55067 -0.148139 222 227 235
-2.22821 -1.53852 -0.141947 138 103 48
-2.12606 -1.58275 -0.0520414 72 38 6
-2.10387 -1.59138 -0.0295904 74 42 10
-2.06221 -1.61327 0.000567866 150 98 67
-2.12264 -1.57521 -0.0439168 76 43 6
-2.11326 -1.5803 -0.0357404 90 58 25
-2.07044 -1.60384 0.00115947 78 46 36
-2.11102 -1.57136 -0.0264261 181 146 112
-2.18333 -1.52604 -0.0863322 132 89 44
-2.06819 -1.58965 0.010974 150 113 78
-2.1966 -1.50833 -0.0923723 187 152 130
-2.17635 -1.51864 -0.0760415 100 64 68
-2.11852 -1.53561 -0.0222521 172 132 83
-2.06294 -1.56292 0.0281391 147 100 90
-2.06803 -1.55939 0.0229922 128 102 99
-2.13369 -1.51798 -0.0287886 176 124 106
-2.13269 -1.51766 -0.0295133 176 124 106
-2.13186 -1.51802 -0.027045 108 63 42
-2.06991 -1.55102 0.0246788 168 92 78
-2.1847 -1.48567 -0.0719911 114 78 48
-2.10323 -1.52995 -0.00492142 104 72 44
-2.17562 -1.49027 -0.0630269 166 132 98
-2.08022 -1.54282 0.0174635 108 74 48
-2.14086 -1.50585 -0.0325986 90 57 22
-2.17123 -1.48524 -0.0560407 181 144 106
-2.08999 -1.52734 0.01183 64 34 2
-2.2024 -1.44517 -0.0744277 63 39 21
-2.19634 -1.42373 -0.0617251 153 119 40
-2.11327 -1.4614 0.0160699 74 43 12
-2.11868 -1.45765 0.0109268 83 51 10
-2.19095 -1.41894 -0.0422302 132 96 32
-2.15788 -1.51106 -0.0520671 182 144 138
-2.22684 -1.59367 -0.172604 92 72 54
-2.18941 -1.58691 -0.116833 183 162 142
-2.20558 -1.53978 -0.113956 154 117 52
