ply
format ascii 1.0
element vertex 876
property float x
property float y
property float z
property uchar red
property uchar green
property uchar blue
end_header
-0.514214 -1.49719 0.219792 0 255 0
-0.534929 -1.45578 0.306443 0 255 0
-0.599147 -1.47875 0.0929513 0 255 0
-0.567674 -1.54923 0.120192 0 255 0
-0.524283 -1.53385 0.204984 0 255 0
-0.546836 -1.45686 0.350006 0 255 0
-0.552523 -1.44427 0.380052 0 255 0
-0.566203 -1.48089 0.353548 0 255 0
-0.549138 -1.4777 0.220903 0 255 0
-0.239171 -1.22072 -0.281717 148 98 38
-0.306532 -1.21185 -0.251302 164 144 125
-0.211066 -1.20215 -0.282635 148 118 102
-0.387959 -1.10536 -0.341025 130 122 84
-0.445345 -1.09167 -0.330867 64 34 14
-0.389443 -1.0483 -0.305364 46 16 8
-0.402105 -1.05319 -0.286583 152 144 94
-0.345825 -1.01283 -0.288116 100 66 30
-0.205514 -1.01885 -0.235273 105 54 24
-0.38546 -0.915658 -0.182076 149 138 95
-0.242546 -1.01925 -0.0969535 155 128 120
-0.228189 -0.903749 -0.15613 138 106 74
-0.223825 -0.873204 -0.174511 96 72 35
-0.277074 -1.00907 -0.0461117 122 72 56
-0.220973 -0.826073 -0.00293565 78 56 38
-0.379037 -0.768225 0.0108042 122 85 43
-0.379035 -0.767504 0.0105146 122 85 43
-0.295068 -0.766268 0.0182563 164 150 126
-0.368942 -0.782616 0.0184796 96 48 16
-0.204857 -0.825035 0.0647558 201 178 172
-0.326893 -0.817279 0.0954796 87 75 76
-0.401404 -0.80076 0.086689 134 88 67
-0.367588 -0.823716 0.097719 184 94 69
-0.313434 -0.820649 0.105213 78 40 26
-0.321759 -0.822549 0.105026 46 16 10
-0.362222 -0.82426 0.102466 126 28 4
-0.29936 -0.792142 0.102101 164 129 104
-0.377799 -0.805529 0.100416 160 134 122
-0.313274 -0.821422 0.112191 100 66 60
-0.360346 -0.824199 0.108152 168 89 62
-0.369419 -0.806718 0.113002 226 173 146
-0.369419 -0.806718 0.113002 226 173 146
-0.377049 -0.724188 0.107698 60 40 30
-0.1749 -0.770888 0.147422 120 90 77
-0.34626 -0.707309 0.115635 89 71 61
-0.34989 -0.7082 0.115589 95 78 71
-0.402552 -0.798914 0.123889 116 76 60
-0.338883 -0.792634 0.135117 175 140 118
-0.347696 -0.797288 0.135623 144 80 50
-0.332729 -0.783889 0.146173 50 18 0
-0.242328 -0.723864 0.156706 154 142 120
-0.360139 -0.779607 0.148017 110 88 48
-0.223681 -0.836023 0.0664567 148 112 100
-0.365058 -0.791069 0.0687569 122 106 92
-0.20051 -0.839303 0.105764 122 42 30
-0.289535 -0.781894 0.114666 140 106 88
-0.210147 -0.786475 0.15155 44 19 10
-0.262837 -1.27254 -0.257078 170 122 73
-0.21386 -1.23035 -0.30258 146 117 104
-0.362585 -1.10573 -0.34739 97 55 28
-0.32416 -1.09468 -0.306633 66 22 12
-0.374887 -0.957859 -0.249853 100 68 30
-0.224689 -1.03379 -0.126509 160 132 121
-0.235022 -1.04581 -0.0545117 190 170 161
-0.297132 -0.769489 0.0159886 72 44 18
-0.447702 -0.867348 0.0656498 154 122 108
-0.196356 -0.842242 0.105941 122 73 66
-0.431608 -0.860397 0.111331 127 100 89
-0.314904 -0.801658 0.126734 73 28 16
-0.459434 -0.863819 0.119562 239 224 212
-0.372964 -0.726743 0.113024 80 54 43
-0.343984 -0.791138 0.141625 178 150 129
-0.343984 -0.791138 0.141625 178 150 129
-0.239965 -1.22748 -0.288641 122 62 16
-0.369935 -0.91985 -0.172004 66 36 12
-0.141274 -0.903654 -0.13183 142 124 117
-0.212266 -0.840669 0.0172278 101 26 28
-0.239509 -0.844196 0.0169633 139 64 40
-0.256107 -0.785889 0.00727544 110 66 42
-0.286343 -0.807303 0.0212939 110 90 74
-0.196458 -0.843649 0.0936304 116 64 58
-0.369451 -0.828086 0.0942361 168 77 52
-0.406441 -0.625117 0.0938902 138 108 96
-0.218384 -0.804579 0.149744 174 122 105
-0.453944 -0.838309 0.136513 138 111 98
-0.408829 -1.25424 -0.265707 88 91 112
-0.201098 -1.00356 -0.00878077 158 31 30
-0.201098 -1.00356 -0.00878077 158 31 30
-0.298692 -0.741051 0.0201841 88 68 40
-0.201839 -0.845288 0.104333 194 144 110
-0.201839 -0.845288 0.104333 194 144 110
-0.262582 -0.788982 0.122911 160 121 104
-0.246597 -0.847625 0.105782 110 63 40
-0.271836 -0.758319 0.102434 133 85 64
-0.368385 -0.71096 0.115775 112 84 66
-0.303402 -0.599585 0.0128549 99 50 26
-0.269584 -0.549057 0.103584 62 56 36
-0.275533 -1.22588 -0.295513 22 12 24
-0.212696 -1.2355 -0.297168 96 20 14
-0.225873 -1.23827 -0.280715 150 120 106
-0.335702 -1.21235 -0.277975 84 24 10
-0.346871 -1.21413 -0.266741 162 147 127
-0.23016 -1.22835 -0.28899 98 10 6
-0.253615 -1.22346 -0.274564 108 17 7
-0.221882 -1.20477 -0.281222 152 130 116
-0.274838 -1.13636 -0.317645 157 139 118
-0.365015 -1.09746 -0.349725 30 8 4
-0.206764 -1.11172 -0.344036 104 63 28
-0.318984 -1.08526 -0.328339 106 67 54
-0.32698 -1.08992 -0.31131 138 96 77
-0.325741 -1.0996 -0.289669 136 94 74
-0.291144 -1.10811 -0.281727 168 122 98
-0.430442 -1.06265 -0.301931 164 110 87
-0.282547 -1.08106 -0.301436 192 148 128
-0.426536 -1.02675 -0.327566 157 145 98
-0.346214 -1.07977 -0.27156 126 81 56
-0.290766 -1.0661 -0.297471 169 120 97
-0.347291 -1.05934 -0.285544 82 38 20
-0.349139 -1.00003 -0.306834 82 38 15
-0.318727 -1.06441 -0.22884 150 103 93
-0.327413 -1.0667 -0.216292 56 14 4
-0.344448 -0.96744 -0.312932 90 57 23
-0.336536 -0.928235 -0.348348 156 144 121
-0.349623 -1.03213 -0.221903 152 104 82
-0.337284 -0.946612 -0.320856 80 46 16
-0.277362 -0.977537 -0.287438 150 132 108
-0.339821 -0.96105 -0.2891 60 20 5
-0.346939 -0.938113 -0.303743 94 58 26
-0.341269 -1.02411 -0.20123 77 30 12
-0.346037 -1.02076 -0.204509 126 79 55
-0.352687 -0.983481 -0.23525 167 117 85
-0.420621 -0.94316 -0.265071 45 20 6
-0.334294 -1.01472 -0.196973 152 100 86
-0.352825 -0.983306 -0.220645 110 65 37
-0.360179 -0.982771 -0.216509 132 82 54
-0.360179 -0.982771 -0.216509 132 82 54
-0.21802 -0.997073 -0.211085 132 78 56
-0.209955 -0.972175 -0.21954 201 154 130
-0.330017 -0.932729 -0.189889 26 8 1
-0.233701 -1.02937 -0.109512 156 128 118
-0.229277 -1.02513 -0.10301 92 68 58
-0.36595 -0.91825 -0.175007 142 122 96
-0.265183 -0.994911 -0.105883 136 30 20
-0.281974 -1.04152 -0.0535762 20 12 10
-0.230418 -0.998936 -0.0620145 87 80 65
-0.242688 -1.02894 -0.0307914 44 31 16
-0.246677 -1.03484 -0.025993 44 31 16
-0.255078 -1.03094 -0.0177449 56 40 28
-0.226329 -1.01759 -0.00900649 175 160 158
-0.250153 -0.985358 -0.0111983 154 136 121
-0.250297 -0.980052 -0.0131656 153 137 118
-0.250178 -0.979379 -0.00657251 152 136 118
-0.211274 -0.944255 -0.0294381 78 64 53
-0.261875 -0.851103 -0.0750051 156 145 123
-0.22682 -0.958794 -0.00732826 150 132 118
-0.219983 -0.96519 -0.00333069 147 129 116
-0.226902 -0.96566 -0.00201074 101 80 71
-0.228932 -0.968906 0.000143871 101 80 71
-0.226914 -0.955665 -0.00525909 96 76 61
-0.236735 -0.460315 -0.252544 92 92 52
-0.22326 -0.801732 -0.0214288 122 100 78
-0.302919 -0.794824 -0.0190396 155 146 125
-0.28838 -0.808489 -0.000195344 43 14 6
-0.292943 -0.820511 0.00664044 43 14 6
-0.46225 -0.82835 0.00807604 158 126 102
-0.444954 -0.827822 0.00919111 96 90 69
-0.431036 -0.82294 0.00855314 102 81 46
-0.431034 -0.821033 0.00754442 102 81 46
-0.316742 -0.797428 0.000385815 158 140 118
-0.427416 -0.826472 0.0128992 166 139 116
-0.289 -0.809817 0.00901729 50 29 12
-0.289 -0.809817 0.00901729 50 29 12
-0.295367 -0.809011 0.0102101 98 71 42
-0.278742 -0.796525 0.00491334 112 92 56
-0.424987 -0.832628 0.017842 98 70 34
-0.481226 -0.803465 0.00267711 154 138 118
-0.329438 -0.801583 0.00625021 94 66 40
-0.27909 -0.790515 0.00285187 116 94 64
-0.433632 -0.837353 0.0209033 160 134 116
-0.442317 -0.841817 0.023427 101 90 70
-0.365003 -0.813893 0.0125373 158 130 96
-0.355067 -0.826293 0.0204873 198 166 148
-0.461562 -0.846897 0.0268133 152 128 108
-0.351281 -0.823604 0.0235727 156 128 115
-0.353662 -0.819492 0.0218088 52 30 22
-0.470587 -0.854223 0.0347475 106 66 34
-0.283034 -0.800994 0.019173 84 66 48
-0.289897 -0.818991 0.0282222 84 66 48
-0.435291 -0.847621 0.0350881 84 68 59
-0.349099 -0.813587 0.0228858 106 69 50
-0.362531 -0.800064 0.0209935 98 24 9
-0.420724 -0.850964 0.0413148 102 64 26
-0.367865 -0.790989 0.0167071 145 140 91
-0.35123 -0.80895 0.0272572 164 128 108
-0.334511 -0.804156 0.0287457 160 122 102
-0.356568 -0.802155 0.0276768 100 32 11
-0.422169 -0.849326 0.0461354 151 116 94
-0.42235 -0.851122 0.0469806 151 116 94
-0.32741 -0.796417 0.0272794 60 28 12
-0.276672 -0.741995 0.00839427 120 106 74
-0.324875 -0.79745 0.0311113 106 71 48
-0.338334 -0.786831 0.0296255 9 6 4
-0.264197 -0.761047 0.0225849 69 42 17
-0.329372 -0.780321 0.0330227 75 92 77
-0.259507 -0.821395 0.0543262 145 118 106
-0.294345 -0.746681 0.0280387 42 22 8
-0.367358 -0.760264 0.0303382 152 150 99
-0.328158 -0.753357 0.0295407 65 50 24
-0.241425 -0.849739 0.0750682 114 65 43
-0.364139 -0.776498 0.0434772 152 150 97
-0.235545 -0.84526 0.0775428 198 174 170
-0.193276 -0.847796 0.0853556 178 150 144
-0.285689 -0.829139 0.0737931 69 28 12
-0.360473 -0.783031 0.0585369 76 76 47
-0.360471 -0.782989 0.0585397 76 76 47
-0.353545 -0.787328 0.0625049 88 76 58
-0.372 -0.785525 0.0613617 77 85 64
-0.505696 -0.784981 0.0559949 152 148 92
-0.280685 -0.816955 0.0821283 116 85 70
-0.374406 -0.791428 0.0700616 156 130 116
-0.365707 -0.809678 0.0775843 82 82 66
-0.326241 -0.824597 0.0871603 123 86 68
-0.374324 -0.809339 0.0787433 90 88 70
-0.353529 -0.80798 0.0789634 163 132 122
-0.239837 -0.842291 0.0999173 202 162 144
-0.285223 -0.82106 0.0929899 182 156 136
-0.285613 -0.822031 0.093336 182 156 136
-0.315862 -0.833399 0.0965606 67 24 9
-0.247853 -0.851652 0.107162 111 63 37
-0.37664 -0.790449 0.077546 166 136 126
-0.361882 -0.827744 0.095119 142 48 24
-0.239134 -0.842167 0.109128 116 71 46
-0.371523 -0.826865 0.096176 127 17 7
-0.317339 -0.831993 0.101762 62 25 12
-0.2731 -0.813454 0.0998641 20 19 16
-0.266924 -0.823469 0.107189 174 144 130
-0.241907 -0.841022 0.115423 176 130 110
-0.338185 -0.814632 0.100253 19 17 21
-0.362357 -0.824893 0.102649 116 22 0
-0.42495 -0.857211 0.109851 64 40 30
-0.425749 -0.860748 0.1111 64 40 30
-0.509978 -0.780657 0.0783085 152 146 95
-0.508147 -0.78392 0.0811194 98 60 22
-0.460069 -0.824047 0.101262 174 132 110
-0.433601 -0.8603 0.114576 170 144 137
-0.51653 -0.785395 0.0841174 152 144 104
-0.294157 -0.804355 0.107507 166 113 92
-0.264205 -0.810028 0.112764 114 101 84
-0.363949 -0.82484 0.110997 82 21 4
-0.347973 -0.813538 0.108906 22 11 12
-0.359296 -0.821534 0.11089 76 20 6
-0.426187 -0.858739 0.120376 96 74 64
-0.394284 -0.774001 0.0937575 129 82 56
-0.440546 -0.860838 0.121303 82 59 50
-0.303941 -0.815295 0.11652 72 27 11
-0.337136 -0.817551 0.115547 32 16 9
-0.34177 -0.817178 0.115335 38 16 7
-0.308348 -0.812484 0.116531 191 125 96
-0.42519 -0.852657 0.121904 157 137 130
-0.371406 -0.794499 0.108113 94 46 26
-0.419823 -0.847808 0.122585 157 136 127
-0.524372 -0.773369 0.0918692 154 100 72
-0.446466 -0.858491 0.126742 93 75 70
-0.321406 -0.813664 0.12255 56 25 19
-0.369335 -0.808646 0.117767 166 113 94
-0.315578 -0.793819 0.120338 67 26 14
-0.287756 -0.781615 0.120966 39 14 4
-0.350202 -0.775921 0.115036 12 6 6
-0.379341 -0.71914 0.0982892 53 14 3
-0.432885 -0.862146 0.136715 186 169 166
-0.457361 -0.85646 0.134838 230 213 209
-0.523107 -0.773103 0.10466 112 80 44
-0.448565 -0.841968 0.131242 194 178 175
-0.351259 -0.784889 0.12444 158 86 59
-0.433676 -0.847419 0.136315 193 176 172
-0.391752 -0.776185 0.121353 22 10 2
-0.372182 -0.672744 0.09663 158 115 98
-0.374884 -0.72321 0.1088 20 8 6
-0.285955 -0.784626 0.133868 184 156 134
-0.315972 -0.795424 0.134999 54 20 4
-0.314921 -0.793041 0.135025 58 26 8
-0.426762 -0.850657 0.142631 178 159 154
-0.471208 -0.893144 0.152479 146 106 86
-0.403209 -0.776342 0.126554 175 155 149
-0.331979 -0.785291 0.135687 106 62 43
-0.371679 -0.719827 0.114067 17 9 5
-0.349877 -0.79227 0.138881 176 142 120
-0.20696 -0.793437 0.152109 98 70 58
-0.20696 -0.793437 0.152109 98 70 58
-0.315897 -0.75058 0.132507 140 72 46
-0.197813 -0.778639 0.15474 190 166 152
-0.377422 -0.71816 0.123341 153 146 98
-0.354045 -0.792436 0.145366 178 150 129
-0.19979 -0.777078 0.155486 38 22 10
-0.302924 -0.720805 0.131249 142 79 55
-0.293768 -0.717834 0.132067 125 84 64
-0.428199 -0.837794 0.152553 132 18 18
-0.331622 -0.780652 0.148268 176 149 126
-0.25591 -0.721035 0.139492 87 54 26
-0.337815 -0.787774 0.150016 56 30 10
-0.217182 -0.774915 0.159168 138 80 53
-0.46542 -0.855499 0.163021 93 70 51
-0.235411 -0.751652 0.159972 112 80 52
-0.4167 -0.819218 0.160972 165 146 138
-0.427042 -0.819056 0.162145 92 106 88
-0.420606 -0.809076 0.161787 91 94 78
-0.441683 -0.827282 0.165271 121 78 55
-0.442217 -0.831113 0.166354 121 78 55
-0.436578 -0.82403 0.165703 154 136 125
-0.426013 -0.815922 0.166207 158 141 124
-0.426013 -0.815922 0.166207 158 141 124
-0.411284 -0.804696 0.167174 102 66 42
-0.445826 -0.828553 0.169443 164 122 98
-0.423431 -0.806137 0.167218 100 100 86
-0.444535 -0.824494 0.170454 112 67 42
-0.437854 -0.820548 0.170382 155 136 129
-0.433572 -0.813245 0.170664 115 102 88
-0.444392 -0.823987 0.172227 166 122 102
-0.418379 -0.801076 0.171243 118 88 65
-0.444643 -0.817996 0.173629 100 56 31
-0.416351 -0.800051 0.173803 154 134 112
-0.411872 -0.78622 0.172644 82 54 21
-0.411918 -0.786611 0.172659 82 54 21
-0.446113 -0.817073 0.17774 120 78 50
-0.415619 -0.777131 0.172418 150 132 112
-0.415619 -0.777131 0.172418 150 132 112
-0.426735 -0.800993 0.178624 96 30 22
-0.422164 -0.791125 0.176889 137 94 81
-0.474028 -0.712381 0.156131 162 137 115
-0.448128 -0.80797 0.180257 152 136 124
-0.429118 -0.779607 0.178561 167 128 95
-0.474593 -0.706468 0.159173 99 64 26
-0.427049 -0.778782 0.181277 86 60 22
-0.431852 -0.771359 0.180681 108 78 44
-0.462033 -0.740824 0.17278 154 129 106
-0.462438 -0.744043 0.173382 154 129 106
-0.443216 -0.770879 0.181176 108 100 68
-0.464664 -0.73449 0.172315 101 70 33
-0.466746 -0.723529 0.171927 98 62 28
-0.466746 -0.723529 0.171927 98 62 28
-0.457883 -0.74574 0.177407 104 72 37
-0.233323 -1.24175 -0.281776 104 12 12
-0.316907 -1.24267 -0.237449 130 110 114
-0.265368 -1.20633 -0.2745 114 26 22
-0.225372 -1.24868 -0.199472 120 14 20
-0.319976 -1.18011 -0.257338 154 106 48
-0.42492 -1.10182 -0.322458 35 12 9
-0.438505 -1.07707 -0.301192 37 16 7
-0.315872 -1.08974 -0.316094 67 28 12
-0.368058 -1.00993 -0.30979 90 51 20
-0.414303 -0.969052 -0.311943 150 146 90
-0.316896 -1.00796 -0.252675 88 37 24
-0.329308 -1.04651 -0.20079 65 13 3
-0.285564 -0.98061 -0.27384 72 32 14
-0.319656 -0.959166 -0.20599 101 59 43
-0.399019 -0.937498 -0.207695 26 8 4
-0.199723 -0.976379 -0.193918 125 74 51
-0.230662 -1.03307 -0.107984 89 63 52
-0.233202 -1.04923 -0.0775922 156 129 116
-0.268367 -1.03835 -0.0585629 39 4 1
-0.168333 -1.01666 -0.0825895 67 33 24
-0.20811 -1.01457 -0.0139025 66 25 18
-0.22582 -0.971661 -0.0116978 113 102 96
-0.427439 -0.826624 0.0129462 168 144 120
-0.329441 -0.801582 0.00625147 100 72 46
-0.316791 -0.809544 0.0110138 160 120 94
-0.349586 -0.814258 0.0233704 102 65 46
-0.361523 -0.818509 0.0251243 156 125 95
-0.281986 -0.801713 0.0207352 26 14 8
-0.458055 -0.86554 0.0545258 100 60 26
-0.291874 -0.755298 0.0128392 158 150 126
-0.428779 -0.86166 0.0543074 108 72 49
-0.35496 -0.787302 0.0297812 124 36 23
-0.35496 -0.787302 0.0297812 124 36 23
-0.46657 -0.846957 0.0683415 124 8 8
-0.191494 -0.846943 0.101288 178 157 151
-0.442722 -0.867726 0.0975259 170 144 137
-0.249527 -0.814197 0.0905591 126 82 62
-0.28565 -0.827509 0.0979247 185 160 144
-0.29123 -0.816341 0.093492 122 94 81
-0.427555 -0.861743 0.105299 116 91 80
-0.41024 -0.847443 0.10249 134 86 62
-0.420743 -0.859495 0.111916 158 137 130
-0.296295 -0.806986 0.105048 102 60 38
-0.455483 -0.872348 0.116223 166 140 135
-0.517652 -0.775603 0.0859222 101 46 21
-0.460014 -0.867498 0.123531 119 98 94
-0.506272 -0.779863 0.099403 160 109 84
-0.323565 -0.806685 0.122961 52 12 4
-0.452036 -0.847108 0.126151 62 46 41
-0.457676 -0.861871 0.130826 82 60 52
-0.471106 -0.827819 0.120441 11 12 12
-0.437838 -0.851001 0.130184 69 55 47
-0.227302 -0.818152 0.13683 142 110 100
-0.175363 -0.791668 0.139141 150 116 104
-0.461991 -0.855183 0.139514 122 79 54
-0.217634 -0.761606 0.141493 212 195 191
-0.433005 -0.806127 0.136501 176 153 147
-0.464781 -0.849125 0.157795 102 76 56
-0.41844 -0.801757 0.171349 122 90 69
-0.41844 -0.801757 0.171349 122 90 69
-0.435976 -0.810714 0.174145 159 137 132
-0.472236 -0.710273 0.16703 154 148 96
-0.286005 -1.23239 -0.27292 26 15 29
-0.229756 -1.21493 -0.28174 145 90 42
-0.189725 -1.22996 -0.26423 126 14 16
-0.294983 -1.0667 -0.357145 166 138 110
-0.345841 -1.07713 -0.277119 96 53 28
-0.325028 -1.06961 -0.215062 135 94 80
-0.342957 -0.969587 -0.278193 62 22 7
-0.340416 -0.904644 -0.327684 115 74 46
-0.426354 -0.96248 -0.237165 64 18 2
-0.155004 -1.02638 -0.192957 164 140 130
-0.155004 -1.02638 -0.192957 164 140 130
-0.444161 -0.949723 -0.228852 90 58 41
-0.205542 -0.982656 -0.221535 195 144 120
-0.204246 -1.00142 -0.202084 226 174 135
-0.330385 -0.933328 -0.18938 29 8 1
-0.244977 -1.05079 -0.077792 128 104 96
-0.265896 -1.06382 -0.0599726 154 126 114
-0.168422 -1.01061 -0.104644 143 106 98
-0.31644 -0.875208 -0.204892 157 146 123
-0.25072 -1.03222 -0.0322721 90 86 71
-0.215939 -0.960947 -0.00226821 106 86 77
-0.2209 -0.961184 -1.46685e-05 146 128 122
-0.229564 -0.959874 0.00108198 104 88 76
-0.26254 -0.770756 -0.030173 150 138 118
-0.264815 -0.842582 0.010905 94 64 32
-0.484473 -0.783849 -0.0156578 145 138 90
-0.43733 -0.813147 0.00379223 100 90 64
-0.256022 -0.791654 -0.000320316 142 114 95
-0.328364 -0.804763 0.00449313 160 137 114
-0.42456 -0.831269 0.0171704 98 69 31
-0.3492 -0.825434 0.0178539 170 138 123
-0.363157 -0.817571 0.014321 90 52 23
-0.360938 -0.75346 -0.00487683 145 142 92
-0.312312 -0.802174 0.0212652 154 126 108
-0.365003 -0.818741 0.027065 172 132 108
-0.277202 -0.771948 0.0194808 94 74 42
-0.321777 -0.789604 0.0308675 102 80 64
-0.261326 -0.755639 0.0202462 68 41 14
-0.418472 -0.865489 0.0620637 100 58 26
-0.331482 -0.760529 0.0222899 18 26 14
-0.331482 -0.760529 0.0222899 18 26 14
-0.416175 -0.865224 0.0782289 138 94 72
-0.326707 -0.783651 0.0595723 161 130 117
-0.253339 -0.77226 0.0634824 184 160 150
-0.364458 -0.804196 0.07547 82 82 66
-0.209756 -0.851807 0.107107 194 143 107
-0.379183 -0.825389 0.0931213 109 28 17
-0.283056 -0.818842 0.0985377 42 28 20
-0.506384 -0.782267 0.0769863 155 132 102
-0.438654 -0.863296 0.119253 174 148 142
-0.291011 -0.804792 0.111285 132 86 66
-0.440724 -0.861073 0.121342 86 63 54
-0.527483 -0.783225 0.0933344 210 159 134
-0.449991 -0.863026 0.124765 94 71 64
-0.431819 -0.859855 0.125012 85 67 60
-0.498904 -0.785013 0.0974595 126 80 48
-0.447154 -0.861904 0.12684 81 62 55
-0.446353 -0.8572 0.126348 95 78 71
-0.458158 -0.855567 0.130163 198 174 166
-0.179036 -0.797224 0.140339 150 120 106
-0.348502 -0.704386 0.114605 92 76 72
-0.334911 -0.792891 0.14358 126 70 44
-0.237268 -0.737454 0.140658 60 32 10
-0.460887 -0.854981 0.153071 152 108 85
-0.409823 -0.80843 0.16478 108 74 52
-0.416443 -0.805359 0.169651 176 152 140
-0.452061 -0.794095 0.178635 110 78 48
-0.455648 -0.799686 0.184079 106 66 36
-0.332919 -1.2091 -0.275459 66 10 0
-0.414045 -1.07719 -0.3009 147 88 73
-0.348778 -1.08747 -0.268622 90 47 22
-0.340213 -1.0325 -0.198176 106 58 44
-0.231823 -1.02718 -0.10343 158 134 121
-0.232004 -1.02552 -0.101017 158 134 122
-0.238736 -1.04393 -0.0456167 60 45 40
-0.400955 -1.14935 0.059369 150 141 118
-0.278629 -0.802163 -0.00158361 40 22 14
-0.451677 -0.815391 0.00334736 99 92 70
-0.27727 -0.801817 0.00201753 24 14 10
-0.278391 -0.811268 0.0605279 162 124 107
-0.305467 -0.747281 0.0361233 162 153 132
-0.373769 -0.780001 0.0579274 80 78 51
-0.512729 -0.779777 0.0800282 158 150 100
-0.282264 -0.807646 0.118348 118 94 76
-0.448091 -0.85215 0.129223 171 153 148
-0.312135 -0.774185 0.135346 157 142 119
-0.357548 -0.786765 0.141427 140 102 64
-0.238695 -1.16578 -0.449409 163 141 126
-0.240916 -1.12928 -0.487019 183 152 147
-0.238408 -1.13401 -0.479658 68 24 19
-0.280828 -1.09999 -0.497058 158 142 125
-0.291342 -1.07863 -0.502031 20 28 72
-0.181811 -1.20891 -0.353576 126 20 16
-0.199285 -1.16209 -0.378863 22 18 32
-0.208282 -1.15393 -0.384982 126 120 126
-0.208282 -1.15393 -0.384982 126 120 126
-0.206965 -1.1561 -0.372537 23 20 36
-0.20836 -1.15626 -0.367472 128 124 132
-0.2403 -1.1132 -0.39671 86 13 10
-0.198912 -1.20771 -0.28154 132 13 13
-0.20361 -1.16771 -0.321675 130 22 22
-0.20361 -1.16771 -0.321675 130 22 22
-0.307686 -1.13301 -0.341586 158 143 123
-0.365874 -1.12193 -0.327799 34 12 8
-0.257974 -1.17988 -0.27001 100 64 35
-0.253575 -1.10127 -0.346284 161 118 60
-0.329471 -1.13317 -0.290422 72 32 16
-0.37265 -1.11234 -0.300178 106 55 40
-0.248282 -1.16457 -0.255036 126 78 56
-0.29675 -1.10878 -0.283855 196 155 133
-0.378375 -1.09418 -0.266837 160 116 100
-0.390227 -1.0959 -0.253451 93 54 24
-0.341002 -1.08627 -0.259784 94 55 29
-0.321794 -1.07883 -0.26546 120 68 49
-0.300447 -1.08137 -0.260718 100 56 36
-0.401381 -1.11796 -0.202508 100 70 41
-0.402573 -1.11539 -0.201244 162 152 130
-0.306643 -1.05629 -0.244221 178 122 103
-0.276245 -1.1137 -0.186512 74 26 14
-0.276245 -1.1137 -0.186512 74 26 14
-0.309979 -1.04996 -0.230711 66 24 12
-0.370768 -1.05697 -0.20922 144 100 74
-0.265792 -1.10603 -0.178268 198 150 119
-0.265792 -1.10603 -0.178268 198 150 119
-0.359319 -1.0418 -0.209782 106 70 40
-0.44911 -1.10203 -0.166605 51 27 5
-0.455551 -1.09824 -0.167941 31 12 5
-0.482872 -1.11648 -0.14904 156 152 106
-0.454004 -1.088 -0.164867 64 13 2
-0.454004 -1.088 -0.164867 64 13 2
-0.424377 -1.08519 -0.16476 80 35 10
-0.334053 -1.0371 -0.195251 154 102 90
-0.265253 -1.0887 -0.159893 114 62 35
-0.305358 -1.07848 -0.164793 174 126 107
-0.335638 -1.04668 -0.177276 120 72 50
-0.257325 -1.08544 -0.153415 186 133 106
-0.266265 -1.07717 -0.158006 175 119 99
-0.262762 -1.08185 -0.153503 108 58 32
-0.334107 -1.03826 -0.177326 108 66 42
-0.276975 -1.07458 -0.152512 182 132 110
-0.433734 -1.06393 -0.136297 32 12 7
-0.274359 -1.06222 -0.12896 154 115 99
-0.274359 -1.06222 -0.12896 154 115 99
-0.369358 -1.04762 -0.133156 72 46 29
-0.273132 -1.05994 -0.116151 102 66 38
-0.411085 -1.04586 -0.125537 142 95 74
-0.391896 -1.03636 -0.125607 157 110 90
-0.21517 -1.01656 -0.121531 92 73 60
-0.21517 -1.01656 -0.121531 92 73 60
-0.21517 -1.01656 -0.121531 92 73 60
-0.209233 -1.01069 -0.117938 88 66 60
-0.279046 -1.04768 -0.101907 102 69 38
-0.212669 -1.01056 -0.117928 154 134 121
-0.208516 -1.01217 -0.115135 96 72 66
-0.208516 -1.01217 -0.115135 96 72 66
-0.248183 -1.03048 -0.105837 160 140 126
-0.306654 -1.05454 -0.0933565 98 74 35
-0.199383 -1.00962 -0.10726 148 123 110
-0.26726 -1.04009 -0.0956645 166 144 131
-0.218502 -1.00935 -0.107926 154 132 116
-0.227882 -1.00946 -0.106444 158 134 118
-0.226097 -1.01009 -0.103675 114 30 24
-0.211789 -0.992258 -0.108015 136 25 18
-0.207815 -1.01179 -0.0955972 144 26 24
-0.251382 -0.982054 -0.109173 139 26 22
0.129851 -0.426389 -0.337542 131 30 24
-0.175858 -0.95009 -0.0847878 144 24 22
-0.165565 -0.957158 -0.0792645 44 33 30
-0.1676 -0.953387 -0.0783218 50 38 32
-0.161928 -0.96254 -0.0733341 127 109 103
-0.150974 -1.00371 -0.0539784 156 128 126
-0.220693 -0.992122 -0.0616385 144 20 20
-0.168972 -0.949125 -0.0752773 58 44 39
-0.162296 -0.953646 -0.0705888 24 11 6
-0.15772 -1.00119 -0.0500829 66 38 38
-0.167618 -0.945028 -0.0719133 69 58 56
-0.171179 -0.945635 -0.0686032 138 125 124
-0.158745 -0.98538 -0.0471023 134 96 96
-0.177744 -0.918232 -0.0724718 44 13 8
-0.171684 -0.918494 -0.0677243 45 31 18
-0.165369 -0.935517 -0.0595409 146 23 21
-0.163338 -0.952942 -0.0266558 134 32 33
-0.256325 -0.96232 -0.0289912 125 39 25
-0.279309 -0.818804 0.0743826 46 22 8
-0.323621 -0.814186 0.106746 86 62 68
-0.352222 -0.813055 0.022174 142 114 96
-0.211178 -1.25389 -0.319988 157 122 107
-0.245196 -1.26005 -0.278883 169 113 44
-0.233237 -1.25636 -0.288049 162 107 36
-0.21377 -1.25029 -0.312372 148 16 18
-0.202854 -1.24369 -0.33481 148 16 18
-0.198453 -1.25267 -0.304172 136 16 14
-0.311527 -1.24405 -0.256066 20 12 20
-0.218173 -1.2384 -0.303577 110 9 9
-0.218173 -1.2384 -0.303577 110 9 9
-0.293918 -1.23798 -0.264632 20 16 28
-0.291449 -1.22224 -0.29951 32 20 30
-0.275797 -1.22195 -0.303219 22 17 30
-0.348318 -1.21577 -0.262527 162 148 130
-0.260576 -1.22269 -0.268714 55 2 2
-0.370291 -1.17848 -0.292282 162 147 126
-0.322117 -1.16653 -0.258711 132 14 16
-0.401641 -1.1154 -0.316012 78 45 26
-0.219256 -1.09781 -0.372759 100 64 32
-0.327905 -1.08057 -0.248019 174 112 90
-0.412154 -1.02593 -0.298449 149 143 91
-0.222394 -1.07481 -0.260078 196 142 108
-0.328902 -1.06917 -0.212507 56 14 4
-0.342417 -1.03106 -0.196204 146 99 78
-0.220397 -1.0003 -0.206951 134 80 56
-0.419616 -0.904285 -0.23153 76 41 24
-0.233188 -1.04255 -0.099937 84 56 48
-0.232836 -1.0385 -0.0913627 92 66 56
-0.263548 -1.06299 -0.0593378 150 126 118
-0.389667 -0.873177 -0.215118 145 142 89
-0.377784 -0.911142 -0.17888 92 66 32
-0.208572 -1.05271 -0.061875 149 28 28
-0.23581 -0.928443 -0.172938 174 131 114
-0.238692 -1.04918 -0.0457087 102 87 80
-0.238861 -1.02985 -0.017518 144 125 118
-0.253401 -1.02691 -0.0168903 94 82 66
-0.243754 -1.03444 -0.00492935 82 64 57
-0.233783 -1.01786 -0.00922478 98 77 72
-0.267161 -0.970999 -0.0346874 138 31 22
-0.226484 -0.985283 -0.0142902 77 26 18
-0.203359 -0.995772 -0.00475858 149 128 121
-0.227761 -0.979957 -0.00602414 88 74 64
-0.23141 -0.969962 -0.000251945 83 66 56
-0.462623 -0.830841 0.00949744 150 122 92
-0.473267 -0.809788 0.00102103 102 66 30
-0.472678 -0.81681 0.00943214 150 132 110
-0.356683 -0.828327 0.0187923 170 138 118
-0.278935 -0.800954 0.0146541 128 97 78
-0.435263 -0.847515 0.0349933 86 68 59
-0.308966 -0.792558 0.0167873 152 122 102
-0.35593 -0.812209 0.0265641 164 127 109
-0.356885 -0.809663 0.0275268 110 59 32
-0.47451 -0.780652 0.0102689 118 96 80
-0.340658 -0.806151 0.0297872 160 122 104
-0.393772 -0.791202 0.0231314 144 140 90
-0.338592 -0.805815 0.0320797 110 64 39
-0.304259 -0.764558 0.0160794 33 12 2
-0.276536 -0.720575 -0.00232543 89 70 37
-0.458644 -0.86782 0.0660811 128 80 58
-0.460682 -0.867903 0.0696508 102 7 4
-0.425532 -0.866439 0.0704182 155 128 115
-0.194249 -0.805141 0.0553009 246 226 220
-0.240095 -0.841367 0.0706033 188 140 120
-0.252433 -0.842718 0.0716348 94 52 26
-0.250855 -0.838984 0.0697792 94 52 26
-0.353342 -0.758058 0.0296242 144 142 88
-0.218058 -0.859745 0.0836047 195 164 158
-0.28538 -0.819567 0.0631248 180 111 82
-0.333334 -0.743239 0.0258426 90 51 16
-0.340627 -0.738386 0.0247297 94 68 24
-0.2781 -0.827175 0.0729557 164 134 118
-0.274878 -0.808552 0.0693269 42 19 8
-0.192222 -0.84951 0.0937814 174 150 145
-0.194037 -0.852448 0.0951813 174 150 145
-0.208866 -0.850473 0.0943581 138 24 21
-0.237975 -0.834618 0.0966267 112 64 38
-0.371354 -0.814122 0.0817769 156 127 112
-0.348986 -0.822307 0.0905038 23 16 14
-0.348986 -0.822307 0.0905038 23 16 14
-0.235048 -0.846751 0.107033 178 152 146
-0.373603 -0.82308 0.0897635 126 12 8
-0.341247 -0.823133 0.0938556 18 10 10
-0.345306 -0.826757 0.0963847 118 108 108
-0.24714 -0.841308 0.113557 96 50 26
-0.242367 -0.841908 0.115824 190 147 127
-0.272446 -0.803407 0.103424 77 36 13
-0.439625 -0.858953 0.115819 95 70 60
-0.434422 -0.860907 0.117231 62 40 29
-0.434422 -0.860907 0.117231 62 40 29
-0.438248 -0.860518 0.118127 198 173 162
-0.516457 -0.782617 0.0827833 153 145 103
-0.511823 -0.788405 0.0873515 106 59 26
-0.434979 -0.862693 0.12453 178 158 152
-0.452738 -0.863373 0.124366 68 48 41
-0.362887 -0.810376 0.111432 90 33 14
-0.420288 -0.850125 0.123612 156 136 128
-0.435747 -0.868141 0.131607 152 135 130
-0.435747 -0.868141 0.131607 152 135 130
-0.508761 -0.78435 0.0948414 117 64 34
-0.437123 -0.857031 0.127833 67 53 46
-0.439281 -0.852161 0.128225 158 140 133
-0.447819 -0.858953 0.131532 177 160 153
-0.425708 -0.843758 0.127623 76 62 57
-0.437231 -0.848449 0.129143 64 50 42
-0.434928 -0.854536 0.133339 75 59 54
-0.200339 -0.831629 0.141129 128 99 86
-0.326027 -0.804969 0.123659 159 94 68
-0.377326 -0.723732 0.0927035 59 23 5
-0.516578 -0.7703 0.101555 98 64 26
-0.502979 -0.780798 0.107307 18 8 3
-0.432956 -0.852685 0.140157 95 76 70
-0.325716 -0.791496 0.128246 177 146 127
-0.340498 -0.799858 0.131974 144 76 40
-0.35584 -0.786201 0.127419 24 4 2
-0.35584 -0.786201 0.127419 24 4 2
-0.278193 -0.784477 0.134005 184 155 136
-0.315912 -0.795254 0.13494 54 18 2
-0.354897 -0.782748 0.129432 154 96 73
-0.35844 -0.780916 0.130947 75 50 42
-0.281815 -0.737459 0.124044 32 27 22
-0.375629 -0.719165 0.110862 19 7 2
-0.379053 -0.723435 0.112194 12 10 8
-0.206653 -0.803249 0.15356 167 138 116
-0.358789 -0.778646 0.133557 163 126 104
-0.428805 -0.841126 0.153716 128 23 19
-0.34777 -0.793475 0.146604 48 34 22
-0.245857 -0.737292 0.154282 103 63 29
-0.445979 -0.834231 0.168917 168 123 102
-0.419712 -0.815846 0.169873 152 134 124
-0.417078 -0.810155 0.170993 191 166 153
-0.44668 -0.820171 0.174924 106 62 35
-0.472269 -0.772461 0.16264 138 112 91
-0.422873 -0.783214 0.177917 56 28 18
-0.455061 -0.775378 0.174317 104 64 32
-0.471367 -0.709729 0.159599 94 62 24
-0.471367 -0.709729 0.159599 94 62 24
-0.474403 -0.703156 0.158197 96 62 24
-0.460347 -0.767309 0.177471 102 66 30
-0.468306 -0.7129 0.162344 158 138 113
-0.453853 -0.78017 0.183492 156 140 116
-0.448758 -0.759917 0.181652 111 82 58
-0.330208 -1.26517 -0.299914 120 22 13
-0.356379 -1.26766 -0.274442 143 43 29
-0.395794 -1.25763 -0.265087 161 144 124
-0.315947 -1.27425 -0.265578 102 3 5
-0.26384 -1.25942 -0.283974 60 36 45
-0.375174 -1.23154 -0.260313 116 14 12
-0.218008 -1.2116 -0.261763 114 20 18
-0.272162 -1.17397 -0.300129 160 140 124
-0.343124 -1.11226 -0.296793 95 44 31
-0.419619 -1.06916 -0.293371 112 56 35
-0.325585 -1.04583 -0.205029 178 121 103
-0.342877 -0.95575 -0.278978 80 31 7
-0.263241 -0.985045 -0.216304 166 113 93
-0.314694 -0.900573 -0.212427 170 150 126
-0.258832 -0.994455 -0.127662 111 64 46
-0.233167 -1.00869 -0.108186 153 119 108
-0.164206 -1.01454 -0.0936231 68 30 24
-0.362762 -1.13645 0.0629709 73 40 16
-0.367044 -1.05759 -0.00187536 144 136 114
-0.367044 -1.05759 -0.00187536 144 136 114
-0.236423 -0.976717 -0.0111783 150 131 116
-0.46507 -0.811432 -0.00412627 94 68 26
-0.282838 -0.89378 0.048378 92 57 29
-0.479551 -0.793213 -0.00995444 104 66 28
-0.279843 -0.800953 0.00614139 113 89 56
-0.336744 -0.814521 0.0128124 154 124 108
-0.445083 -0.851213 0.0325024 156 132 118
-0.425956 -0.857832 0.0544826 179 145 130
-0.405147 -0.819338 0.0439766 156 140 104
-0.183469 -0.840822 0.0661111 212 188 182
-0.386147 -0.755111 0.0257797 158 146 107
-0.303974 -0.727426 0.0212052 94 78 49
-0.334456 -0.765636 0.0397443 128 122 78
-0.322025 -0.834748 0.0746098 189 120 81
-0.319208 -0.830823 0.0731501 206 143 107
-0.410919 -0.861809 0.0865292 164 148 105
-0.354366 -0.775 0.0541231 148 140 100
-0.361023 -0.788012 0.0630759 78 84 65
-0.318582 -0.827146 0.0827241 132 76 51
-0.461821 -0.863774 0.0944025 192 152 130
-0.434174 -0.848209 0.110291 102 75 67
-0.458305 -0.865715 0.11871 120 84 70
-0.455441 -0.855682 0.121319 86 65 57
-0.428194 -0.851821 0.123603 89 71 63
-0.448206 -0.855104 0.124144 126 106 100
-0.374585 -0.79681 0.106882 169 142 132
-0.370818 -0.725134 0.0896421 66 26 11
-0.377202 -0.734493 0.0935464 162 144 112
-0.461787 -0.849837 0.130494 138 102 84
-0.439788 -0.855027 0.135504 192 173 170
-0.34182 -0.786003 0.118633 144 77 44
-0.223317 -0.816026 0.140644 140 105 90
-0.432218 -0.848632 0.13872 111 92 86
-0.457204 -0.852827 0.138886 118 94 86
-0.373227 -0.751017 0.113876 78 26 13
-0.396141 -0.838158 0.142594 78 26 13
-0.293947 -0.751491 0.125106 151 130 112
-0.293947 -0.751491 0.125106 151 130 112
-0.27042 -0.695485 0.111238 30 20 12
-0.27042 -0.695485 0.111238 30 20 12
-0.274423 -0.739188 0.126066 130 114 96
-0.287375 -0.728247 0.121437 150 138 117
-0.357974 -0.773678 0.135679 112 86 60
-0.358399 -0.791175 0.142205 134 96 60
-0.253302 -0.645114 0.101426 152 140 116
-0.334602 -0.68012 0.107853 148 136 103
-0.482972 -0.717731 0.111559 116 104 65
-0.498375 -0.865366 0.158341 116 104 65
-0.47855 -0.691167 0.110477 106 87 55
-0.47855 -0.691167 0.110477 106 87 55
-0.477329 -0.681809 0.117383 138 108 82
-0.266411 -0.74011 0.157234 153 136 115
-0.447787 -0.851985 0.181034 124 88 70
-0.445524 -0.836891 0.180447 162 136 122
-0.438507 -0.812068 0.184532 113 20 15
-0.438507 -0.812068 0.184532 113 20 15
-0.464511 -0.734707 0.164761 157 134 111
-0.464511 -0.734707 0.164761 157 134 111
-0.455462 -0.756983 0.18392 98 74 35
-0.207938 -1.25578 -0.305263 146 27 18
-0.45212 -0.942265 -0.216738 92 64 46
-0.273121 -1.08846 -0.0535357 114 83 69
-0.354532 -0.924026 -0.160525 154 145 115
-0.261393 -0.810931 0.0867633 160 127 107
-0.43708 -0.866458 0.117514 77 54 44
-0.386566 -0.735354 0.069173 116 66 40
-0.190514 -0.808617 0.139325 134 106 89
-0.384292 -1.22552 -0.258942 164 148 126
-0.380204 -1.10344 -0.366583 161 150 126
-0.432977 -1.07945 -0.306668 50 22 12
-0.429756 -1.05952 -0.29843 40 10 1
-0.429756 -1.05952 -0.29843 40 10 1
-0.346478 -0.97393 -0.302812 94 58 24
-0.200926 -0.977932 -0.192042 126 76 52
-0.352827 -0.922022 -0.16857 94 66 30
-0.35741 -0.924291 -0.159014 158 146 116
-0.237183 -1.04149 -0.0382826 76 62 62
-0.232555 -1.04053 -0.0362317 132 114 109
-0.22883 -0.956863 -0.00564614 92 72 58
-0.342212 -0.822533 0.0179489 56 27 7
-0.492902 -0.76873 -0.0103207 95 72 32
-0.455768 -0.870866 0.0579812 156 122 105
-0.455543 -0.869465 0.057544 156 122 105
-0.307619 -0.754744 0.037802 158 148 124
-0.366921 -0.833914 0.0933669 140 70 46
-0.409792 -0.845479 0.10161 131 83 57
-0.457322 -0.861176 0.116764 122 90 77
-0.27455 -0.805553 0.101064 140 111 100
-0.27455 -0.805553 0.101064 140 111 100
-0.248692 -0.819516 0.110225 158 128 117
-0.436589 -0.852695 0.134187 86 70 66
-0.507908 -0.764466 0.0905366 108 61 32
-0.38229 -0.720962 0.0890002 122 82 62
-0.186275 -0.806427 0.134821 129 100 85
-0.204841 -0.810696 0.141282 193 166 145
-0.216822 -0.810681 0.143704 194 164 150
-0.343106 -0.79417 0.138809 140 100 75
-0.343106 -0.79417 0.138809 140 100 75
-0.493404 -1.04434 0.230136 94 70 50
-0.324456 -0.775086 0.140377 130 70 40
-0.388716 -0.746136 0.127525 137 97 78
-0.278115 -0.720553 0.125117 86 68 32
-0.370959 -0.709156 0.121894 118 76 37
-0.461816 -0.837983 0.166334 8 8 6
-0.328443 -0.770462 0.150557 136 88 63
-0.436123 -0.828007 0.165395 154 134 126
-0.427469 -0.823734 0.168462 155 138 118
-0.453094 -0.812534 0.163551 114 73 48
-0.416132 -0.823295 0.182331 156 143 104
-0.422776 -0.783137 0.177943 46 22 15
-0.469524 -0.724725 0.165818 159 137 110
-0.471915 -0.708326 0.166611 155 148 95
-0.462989 -0.717128 0.177043 146 144 92
-0.27037 -1.24033 -0.270108 24 14 29
-0.276272 -1.01021 -0.0503191 140 84 65
-0.284339 -0.779666 0.11915 114 88 72
-0.284339 -0.779666 0.11915 114 88 72
-0.234997 -0.814908 0.138859 129 94 82
-0.23305 -0.810516 0.14567 150 90 66
-0.348847 -0.788408 0.146772 174 150 130
-0.368316 -1.25441 -0.285867 182 66 66
-0.21768 -1.25318 -0.294852 138 12 12
-0.327898 -1.19316 -0.281846 134 93 34
-0.237277 -1.20119 -0.285676 158 136 119
-0.346582 -0.934226 -0.308144 97 62 27
-0.387766 -0.940872 -0.245623 80 30 10
-0.378885 -0.719588 0.120572 34 16 4
-0.293762 -0.718016 0.132159 128 82 58
